ply
format ascii 1.0
element vertex 1236
property float x
property float y
property float z
property uchar diffuse_blue
property uchar diffuse_green
property uchar diffuse_red
end_header
0.340988 -0.532406 3.81856 67 109 133 
0.288794 -0.582038 3.80373 53 117 139 
0.308492 -0.572708 3.80649 55 99 123 
0.343557 -0.533632 3.82787 24 60 82 
0.332121 -0.538984 3.83126 26 62 84 
0.172746 -0.675592 3.77025 29 46 90 
0.340449 -0.536865 3.83792 64 99 121 
0.294835 -0.586734 3.81669 24 64 92 
0.219054 -0.653358 3.79369 62 62 163 
0.242122 -0.618033 3.82297 18 64 93 
0.342251 -0.526592 3.87447 77 136 163 
0.267967 -0.608007 3.83595 51 133 162 
0.234892 -0.637499 3.82484 28 73 98 
0.270724 -0.605445 3.84588 61 136 162 
0.217994 -0.640484 3.83371 48 90 114 
0.301719 -0.570775 3.88156 42 88 111 
0.221463 -0.599776 3.90073 63 104 124 
0.886535 -1.76325 3.35657 12 50 72 
0.361832 -0.578526 3.64252 67 86 110 
0.388569 -0.60214 3.6509 32 74 102 
0.361815 -0.5721 3.6646 0 21 44 
0.385641 -0.60339 3.67392 39 84 109 
0.341181 -0.553788 3.67928 67 90 121 
0.341181 -0.553788 3.67928 67 90 121 
0.218472 -0.444747 3.68192 16 28 73 
0.721512 -1.23454 3.59151 64 90 108 
0.221152 -0.450717 3.69282 5 24 55 
0.21098 -0.447985 3.70468 73 95 124 
0.303114 -0.527698 3.71666 30 56 96 
0.34689 -0.574646 3.72757 69 102 129 
0.395729 -0.630657 3.727 34 97 128 
0.3505 -0.58433 3.7354 0 30 57 
0.319988 -0.577157 3.77471 68 108 132 
0.166779 -0.47766 3.81548 54 78 132 
0.256849 -0.605446 3.81298 8 52 86 
0.256849 -0.605446 3.81298 8 52 86 
0.0542511 -0.423698 3.83531 108 123 191 
0.124685 -0.477844 3.8356 50 51 159 
0.280225 -0.630448 3.83075 34 124 158 
0.15404 -0.584183 3.8415 61 76 142 
0.314354 -0.843326 3.31425 90 90 118 
0.247669 -0.594081 3.45684 54 60 95 
0.227229 -0.337163 3.64251 70 111 131 
0.298669 -0.45482 3.72577 55 93 114 
0.286346 -0.462063 3.71045 69 91 126 
0.286346 -0.462063 3.71045 69 91 126 
0.298692 -0.55513 3.64742 71 87 119 
0.296417 -0.510771 3.70111 38 51 112 
0.305934 -0.587196 3.64712 15 32 62 
0.270641 -0.329593 3.86198 63 99 120 
0.270641 -0.329593 3.86198 63 99 120 
0.280012 -0.435396 3.80223 32 99 126 
0.284924 -0.475061 3.7771 13 35 58 
0.335609 -0.684149 3.63955 84 105 132 
0.274725 -0.360329 3.87177 53 97 126 
0.281462 -0.398165 3.85256 5 50 75 
0.0626822 0.423802 4.41099 33 89 124 
0.283953 -0.425186 3.85279 0 44 71 
0.268287 -0.438137 3.84038 6 54 83 
0.27813 -0.45834 3.85621 49 97 124 
0.261844 -0.579228 3.74108 77 111 138 
0.278649 -0.537255 3.82311 7 51 80 
0.308401 -0.690006 3.7315 36 55 124 
0.308401 -0.690006 3.7315 36 55 124 
0.271081 -0.463519 3.90847 61 97 118 
0.314255 -0.655086 3.76805 83 114 140 
0.279367 -0.562225 3.83329 7 51 85 
0.269704 -0.596129 3.79692 87 116 142 
0.237561 -0.438523 3.92785 4 45 66 
0.272699 -0.713697 3.70571 92 121 151 
0.243034 -0.431536 3.96565 51 94 120 
0.243034 -0.431536 3.96565 51 94 120 
0.243173 -0.45964 3.94149 1 39 60 
0.274679 -0.696642 3.74582 38 43 154 
0.253422 -0.5404 3.8952 45 104 131 
0.253422 -0.5404 3.8952 45 104 131 
0.254266 -0.558455 3.88312 11 52 84 
0.231804 -0.448315 3.97287 5 38 67 
0.233656 -0.472647 3.95516 15 44 70 
0.233843 -0.508791 3.92404 61 113 137 
0.230493 -0.606238 3.83329 59 125 156 
0.229963 -0.487391 3.95559 52 115 137 
0.229963 -0.487391 3.95559 52 115 137 
0.246398 -0.56715 3.90197 44 102 131 
0.216067 -0.474703 3.97211 0 43 80 
0.252513 -0.75837 3.72927 9 39 67 
0.242475 -0.764456 3.71593 111 135 169 
0.242475 -0.764456 3.71593 111 135 169 
0.238847 -0.599645 3.87775 45 113 146 
0.321126 -0.788225 3.7597 97 127 155 
0.233831 -0.618349 3.86214 44 114 149 
0.261845 -0.79152 3.71562 27 46 90 
0.224505 -0.561946 3.91034 44 112 143 
0.061152 -0.881215 3.47841 68 48 159 
0.228133 -0.597999 3.88292 0 53 86 
0.22094 -0.570647 3.90621 0 57 90 
0.226275 -0.562466 3.91876 55 123 154 
0.216159 -0.764932 3.72291 108 145 152 
0.072674 -0.895231 3.48713 155 139 198 
0.222713 -0.63771 3.85435 40 118 152 
0.183874 -0.642235 3.82017 37 52 132 
0.201666 -0.528157 3.94679 52 118 149 
0.210989 -0.649965 3.83983 69 126 151 
0.224954 -0.661642 3.83956 0 53 82 
0.220118 -0.614963 3.88494 0 69 101 
0.253442 -0.82306 3.70739 34 73 63 
0.181879 -0.583119 3.89352 40 114 149 
0.181879 -0.583119 3.89352 40 114 149 
0.247706 -0.832726 3.69762 13 39 67 
0.199591 -0.665008 3.83005 99 137 159 
0.180399 -0.605554 3.87466 45 127 156 
0.20918 -0.578586 3.92395 0 60 93 
0.20918 -0.578586 3.92395 0 60 93 
0.209997 -0.61137 3.89238 38 114 148 
0.209048 -0.665519 3.83854 54 113 140 
0.157488 -0.625597 3.84579 108 143 164 
0.200582 -0.589579 3.91541 0 74 106 
0.181634 -0.525075 3.96798 0 58 89 
0.215999 -0.725828 3.79439 10 48 46 
0.181717 -0.674548 3.83097 113 147 163 
0.201135 -0.671051 3.85036 0 48 79 
0.11824 -0.555032 3.90408 0 48 79 
0.154565 -0.419739 4.06823 0 67 102 
0.202162 -0.706354 3.81838 113 147 163 
0.15988 -0.480566 4.01375 53 129 159 
0.173351 -0.511088 3.99389 5 67 93 
0.210611 -0.661061 3.87404 0 70 101 
0.213543 -0.774343 3.76264 55 71 112 
0.206435 -0.680497 3.85485 54 130 160 
0.200014 -0.657123 3.87419 52 132 161 
0.196267 -0.678333 3.85294 0 59 91 
0.215431 -0.672189 3.87768 48 123 155 
0.146686 -0.469251 4.0331 56 122 152 
0.196732 -0.676972 3.8622 51 136 164 
0.172877 -0.636611 3.8855 0 73 103 
0.172877 -0.636611 3.8855 0 73 103 
0.2104 -0.738019 3.81323 116 156 162 
0.149058 -0.710667 3.79509 25 56 44 
0.183071 -0.544777 3.99016 4 56 82 
0.159845 -0.504602 4.01759 55 111 140 
0.172923 -0.56776 3.96349 10 68 91 
0.140711 -0.463538 4.04589 3 72 99 
0.140711 -0.463538 4.04589 3 72 99 
0.103739 -0.351393 4.1328 57 126 156 
0.161203 -0.567114 3.95923 67 123 146 
0.128906 -0.405249 4.10152 0 74 100 
0.186263 -0.69708 3.84768 39 143 167 
0.145127 -0.471867 4.04946 50 120 147 
0.146355 -0.542304 3.97869 14 68 90 
0.146355 -0.542304 3.97869 14 68 90 
0.150729 -0.507142 4.01984 62 119 146 
0.162354 -0.649206 3.88838 62 137 163 
0.147845 -0.501899 4.02936 9 70 98 
0.146156 -0.543407 3.98616 62 112 135 
0.146156 -0.543407 3.98616 62 112 135 
0.144163 -0.488582 4.04173 54 117 148 
0.148201 -0.606953 3.9233 16 77 108 
0.148201 -0.606953 3.9233 16 77 108 
0.149601 -0.786925 3.74045 28 47 86 
0.117965 -0.405817 4.11011 55 124 151 
0.162609 -0.665445 3.87848 15 62 93 
0.153451 -0.589826 3.9514 9 56 81 
0.153061 -0.627113 3.91232 56 139 164 
0.151844 -0.605882 3.93506 67 137 164 
0.154164 -0.67472 3.86634 38 145 170 
0.202209 -1.04776 3.51808 13 15 87 
0.150324 -0.634991 3.9068 3 60 87 
0.150324 -0.634991 3.9068 3 60 87 
0.15896 -0.711564 3.83663 112 143 146 
0.133398 -0.52874 4.00725 63 111 134 
0.142684 -0.791102 3.74213 26 48 83 
0.15303 -0.550579 4.00063 1 48 73 
0.152688 -0.62373 3.92705 18 69 99 
0.0807648 -0.354394 4.15442 4 67 93 
0.124862 -0.531572 4.00808 70 118 141 
0.0823781 -0.470267 4.04616 2 50 73 
0.0780554 -0.368402 4.15007 56 115 140 
0.117446 -0.494 4.05125 4 63 90 
0.134887 -0.67441 3.87637 19 110 137 
0.132078 -0.610978 3.94127 65 140 160 
0.117326 -0.53754 4.00703 70 117 137 
0.15061 -0.826738 3.73252 30 49 109 
0.122008 -0.465176 4.09154 19 77 100 
0.0857682 -0.431049 4.10193 13 72 97 
0.108927 -0.550449 3.99906 76 120 144 
0.108927 -0.550449 3.99906 76 120 144 
0.101368 -0.500787 4.04628 13 69 92 
0.101368 -0.500787 4.04628 13 69 92 
0.120742 -0.589571 3.96763 77 126 146 
0.0879955 -0.468184 4.0713 22 77 102 
0.0827667 -0.47082 4.06719 73 129 152 
0.101533 -0.489272 4.06645 72 129 154 
0.107395 -0.538576 4.01882 37 74 99 
0.067145 -0.415778 4.12194 13 66 90 
0.109703 -0.644819 3.91291 7 78 103 
0.118448 -0.665951 3.89774 11 89 117 
0.118448 -0.665951 3.89774 11 89 117 
0.0938491 -0.539438 4.01286 12 54 82 
0.123855 -0.71391 3.8517 17 60 86 
0.103203 -0.628763 3.92758 20 68 95 
0.114803 -0.698457 3.86476 68 148 171 
0.0842162 -0.437125 4.12053 63 117 139 
0.154314 -0.860223 3.72422 36 51 117 
0.103446 -0.604419 3.9606 71 138 158 
0.108961 -0.802409 3.75543 128 163 185 
0.104961 -0.652508 3.91265 62 143 168 
0.10297 -0.64102 3.92368 73 139 161 
0.0874277 -0.53801 4.02478 54 143 165 
0.0787916 -0.541966 4.01577 61 143 166 
0.103319 -0.679988 3.88808 69 149 177 
0.0641575 -0.486979 4.0651 73 133 156 
0.0858454 -0.56529 3.99936 63 139 161 
0.0554485 -0.486541 4.06079 33 75 105 
0.0495754 -0.42429 4.12514 14 67 89 
0.0495754 -0.42429 4.12514 14 67 89 
0.0534446 -0.430803 4.1215 14 67 89 
0.0353893 -0.391755 4.15056 20 71 91 
0.0929143 -0.786899 3.7738 58 100 104 
0.0921258 -0.770192 3.79334 21 54 90 
0.0969495 -0.716219 3.8581 11 47 74 
0.0852526 -0.651181 3.92013 56 139 164 
0.0842628 -0.642073 3.92948 61 143 164 
0.0895461 -0.763202 3.80437 128 166 188 
0.0557462 -0.520569 4.04075 53 152 178 
0.0691094 -0.56322 4.00891 28 76 105 
0.0735564 -0.588017 3.98672 34 64 87 
0.0609217 -0.684335 3.87438 7 53 76 
0.0348356 -0.467605 4.08961 65 147 168 
0.103357 -0.769318 3.8157 137 171 187 
0.0520816 -0.533246 4.03263 60 148 176 
0.0399368 -0.459165 4.1068 74 135 156 
0.0551053 -0.60018 3.97195 76 137 151 
0.063624 -0.632757 3.94281 78 127 147 
0.0651959 -0.666275 3.90791 0 97 125 
-0.00306022 -0.366058 4.18504 68 121 145 
0.0401423 -0.497198 4.07567 30 71 103 
0.0527117 -0.610998 3.96164 23 51 74 
0.0997041 -0.753692 3.84473 15 62 82 
0.0590365 -0.683728 3.8905 9 102 128 
0.00345981 -0.39419 4.16583 73 122 147 
0.00345981 -0.39419 4.16583 73 122 147 
0.048943 -0.593638 3.98655 20 57 73 
0.0366652 -0.697673 3.86482 130 165 186 
0.021472 -0.512501 4.0586 35 156 187 
0.0347911 -0.56938 4.00692 69 145 163 
0.0317485 -0.662861 3.90258 8 101 127 
0.0489428 -0.798544 3.76845 136 166 188 
-0.0103405 -0.406014 4.15475 20 58 86 
0.0626017 -0.647652 3.94451 26 46 65 
0.0321821 -0.690048 3.87489 16 53 78 
0.0156893 -0.704846 3.84969 132 164 197 
0.0496829 -0.701075 3.88087 66 155 177 
0.0419962 -0.677896 3.90131 59 150 176 
0.0279431 -0.764477 3.79597 34 68 84 
0.0440936 -0.604939 3.98454 71 133 150 
0.0440936 -0.604939 3.98454 71 133 150 
0.0282865 -0.599608 3.9785 74 134 145 
-0.021066 -0.583643 3.96296 12 103 129 
-0.0311283 -0.418322 4.14277 28 75 106 
0.0218689 -0.585035 3.99856 76 136 153 
0.0227505 -0.679679 3.89518 69 151 174 
-0.0291588 -0.381356 4.18626 54 155 180 
0.0116634 -0.713257 3.85107 68 108 115 
0.0424644 -0.608186 3.99195 18 77 98 
0.0108472 -0.656276 3.91648 67 155 179 
0.0011152 -0.549571 4.02733 71 135 157 
-0.0476273 -0.383816 4.17784 7 81 110 
0.0556329 -0.747393 3.85472 71 153 176 
-0.00460076 -0.597164 3.98229 72 111 123 
-0.00191474 -0.650994 3.92445 65 154 178 
-0.052862 -0.397092 4.17555 51 162 188 
-0.0346119 -0.596592 3.96845 80 153 169 
-0.291859 0.289492 4.76528 9 77 108 
-0.291859 0.289492 4.76528 9 77 108 
-0.0406731 -0.601862 3.96119 24 101 121 
-0.00789392 -0.659602 3.92123 24 86 114 
-0.046577 -0.517943 4.05601 20 91 114 
-0.101628 -0.575255 3.95699 40 86 115 
-0.0604384 -0.691095 3.86071 48 88 80 
-0.0498859 -0.591177 3.98359 25 65 80 
-0.0629183 -0.612885 3.9494 67 154 174 
-0.0570059 -0.597137 3.97227 74 142 158 
-0.0794638 -0.606525 3.9576 36 86 109 
-0.132815 -0.534538 4.02795 37 89 105 
-0.207626 -0.463486 4.07374 101 166 182 
-0.198786 -0.521389 4.01389 111 160 174 
0.243582 -0.626078 3.81229 91 122 148 
0.220859 -0.707569 3.74848 17 43 67 
-0.345833 0.159624 4.0458 111 141 163 
-0.345833 0.159624 4.0458 111 141 163 
0.194505 -0.607157 3.85384 67 130 154 
-0.167503 0.0364218 4.14779 49 123 153 
0.205188 -0.640445 3.84391 59 119 142 
0.198355 -0.560738 3.93052 0 66 96 
0.201225 -0.64112 3.85141 0 55 80 
0.19504 -0.629316 3.86521 49 129 157 
0.197577 -0.661617 3.83188 107 145 166 
0.194498 -0.644905 3.85599 0 54 84 
0.205298 -0.685021 3.8251 106 142 163 
0.173454 -0.50378 4.00373 53 117 145 
0.18213 -0.556804 3.95675 7 71 99 
0.189113 -0.635609 3.87521 0 83 110 
0.188174 -0.651241 3.86727 50 130 158 
0.182656 -0.637977 3.87913 0 76 105 
0.170377 -0.675651 3.83972 112 149 156 
0.172168 -0.669201 3.86254 47 137 166 
0.172664 -0.676019 3.85622 36 139 166 
0.0751778 -0.898103 3.48663 160 145 208 
0.161533 -0.602103 3.94675 6 54 81 
0.166917 -0.672162 3.87538 4 52 88 
0.159216 -0.648668 3.90145 0 65 95 
0.164675 -0.691011 3.85892 29 141 170 
0.144086 -0.552981 4.0045 3 49 72 
0.162406 -0.716639 3.83451 116 149 152 
0.158558 -0.728465 3.82318 26 60 53 
0.131648 -0.535601 4.03177 57 119 145 
0.156262 -0.718137 3.84232 13 46 65 
0.202439 -1.02994 3.5229 47 34 144 
0.0503528 -0.914012 3.4993 229 218 244 
0.142766 -0.686411 3.8876 57 137 165 
0.142298 -0.698696 3.87417 55 142 172 
0.147092 -0.821892 3.734 34 52 103 
0.155864 -0.765168 3.819 133 162 171 
0.134832 -0.676145 3.90632 21 72 98 
0.116855 -0.584335 4.00201 48 147 165 
0.112191 -0.553219 4.03704 10 68 91 
0.130035 -0.681693 3.9047 67 134 161 
0.133664 -0.821696 3.73731 32 52 105 
0.120935 -0.588755 4.01126 21 73 99 
0.120433 -0.780957 3.77978 57 109 83 
0.142019 -0.842979 3.73107 42 62 113 
0.122974 -0.671299 3.92246 63 117 139 
0.126914 -0.730395 3.85635 15 78 102 
0.123693 -0.742776 3.84367 25 53 71 
0.138 -0.842422 3.73919 129 163 179 
0.120839 -0.738178 3.85327 32 103 119 
0.104971 -0.634937 3.96588 33 68 89 
0.109443 -0.609089 4.00512 26 152 175 
0.118923 -0.807313 3.77773 29 60 93 
0.100673 -0.666914 3.94152 79 135 150 
0.092574 -0.657904 3.95619 22 53 72 
0.100641 -0.763954 3.83374 132 165 184 
0.0907969 -0.651904 3.96775 57 142 161 
0.0832752 -0.661918 3.95773 75 138 152 
0.0832752 -0.661918 3.95773 75 138 152 
0.09023 -0.771421 3.8331 137 167 184 
0.0820427 -0.759181 3.84395 13 51 73 
0.0763221 -0.699391 3.91514 21 91 114 
0.0774108 -0.665376 3.96045 69 134 150 
0.0775223 -0.759778 3.84847 67 111 135 
0.0865164 -0.848102 3.74789 139 169 192 
0.0670154 -0.683639 3.93977 27 59 75 
0.0851882 -0.840124 3.76465 34 69 77 
0.0704701 -0.738626 3.87939 58 152 181 
0.068797 -0.765136 3.84705 81 149 174 
0.0717609 -0.794013 3.81614 34 75 81 
0.050163 -0.69952 3.92953 27 65 81 
0.0501397 -0.741982 3.87686 65 151 175 
0.0472838 -0.70884 3.91804 63 150 163 
0.0203558 -0.64183 4.00228 61 153 176 
0.0403341 -0.867734 3.73367 52 72 117 
0.0258505 -0.793114 3.81738 35 79 66 
0.0313227 -0.797658 3.8223 113 152 162 
0.00737154 -0.657922 3.98233 23 60 78 
0.0159076 -0.787394 3.82547 105 146 150 
-0.0043577 -0.733666 3.89082 60 157 182 
-2.1465 8.08278 0.223858 54 70 95 
-2.31104 7.75179 0.368384 48 69 96 
0.203672 -0.517639 3.91514 46 100 129 
0.19721 -0.504145 3.96422 0 46 73 
0.158535 -0.548699 3.88187 43 106 130 
0.159898 -0.578859 3.87592 42 110 133 
0.162307 -0.572848 3.8926 43 109 140 
0.176162 -0.515302 3.99424 0 44 72 
0.156847 -0.577361 3.88737 0 42 71 
0.14846 -0.588513 3.85446 10 46 39 
0.148659 -0.576907 3.90369 50 113 144 
0.148659 -0.576907 3.90369 50 113 144 
0.142678 -0.581862 3.90002 0 39 73 
0.1441 -0.569014 3.93455 0 54 86 
0.138065 -0.588628 3.90297 0 34 69 
0.133539 -0.602339 3.88736 20 122 152 
0.131279 -0.588553 3.91002 0 45 78 
0.125388 -0.612397 3.86803 91 122 130 
0.129726 -0.579574 3.93476 0 43 72 
0.122219 -0.581641 3.93471 46 108 136 
0.109918 -0.604912 3.88648 46 114 145 
0.118047 -0.591032 3.92571 0 27 62 
0.118943 -0.579753 3.95274 0 37 66 
0.110279 -0.595575 3.92003 37 105 138 
0.0918108 -0.629372 3.84183 11 51 38 
0.110308 -0.582784 3.95589 57 109 137 
0.110308 -0.582784 3.95589 57 109 137 
0.103434 -0.604713 3.91705 0 45 82 
0.104503 -0.589776 3.94734 1 43 71 
0.0914589 -0.615046 3.8894 43 132 154 
0.113441 -0.547457 4.0323 53 99 126 
0.0954328 -0.606044 3.91862 47 130 163 
0.108396 -0.560543 4.01106 33 120 142 
0.109807 -0.545608 4.04141 0 46 72 
0.0687639 -0.668635 3.78808 106 139 166 
0.0687639 -0.668635 3.78808 106 139 166 
0.0960925 -0.598117 3.94909 42 99 124 
0.0827345 -0.621292 3.88804 72 117 142 
0.0729755 -0.65998 3.81657 42 94 82 
0.105631 -0.568132 4.01648 43 123 151 
0.0776136 -0.622516 3.88313 0 18 42 
0.0876037 -0.599963 3.95574 0 48 70 
0.0781879 -0.610862 3.92099 36 122 155 
0.092675 -0.562779 4.02351 31 129 157 
0.0572913 -0.653676 3.82369 8 47 79 
0.0745748 -0.611027 3.92883 0 66 101 
0.0892095 -0.549213 4.05266 63 122 149 
0.056262 -0.613443 3.90019 44 133 157 
0.0753267 -0.599756 3.967 46 115 128 
0.0712485 -0.607498 3.94715 55 117 141 
0.0785527 -0.580557 4.00488 39 137 165 
0.0715669 -0.603227 3.9577 13 30 58 
0.0715669 -0.603227 3.9577 13 30 58 
0.0746121 -0.585616 3.99604 0 54 79 
0.0692631 -0.596491 3.97994 16 43 63 
0.0654225 -0.610242 3.95471 19 38 59 
0.0517398 -0.633096 3.89096 0 56 82 
0.0611698 -0.619991 3.93308 27 132 162 
0.0668815 -0.588758 3.99267 58 125 145 
0.0682137 -0.587486 4.00155 0 58 89 
0.0722418 -0.559213 4.05628 0 53 86 
0.0602576 -0.664968 3.88647 51 137 161 
0.0734957 -0.558809 4.06672 51 135 158 
0.051355 -0.632016 3.91568 3 90 120 
0.0462833 -0.632156 3.90468 0 86 116 
0.0581399 -0.588714 4.00608 0 45 77 
0.0389186 -0.640208 3.88816 71 116 141 
0.0528719 -0.600643 3.97866 12 74 92 
0.046896 -0.628311 3.92915 8 92 122 
0.046896 -0.628311 3.92915 8 92 122 
0.0336898 -0.641479 3.88285 3 35 57 
0.0359458 -0.63079 3.90737 0 70 100 
0.0584542 -0.559816 4.06303 34 130 165 
0.0216824 -0.69497 3.78641 139 159 204 
0.0501164 -0.591828 4.00939 0 47 79 
0.0142459 -0.680234 3.79637 131 159 182 
0.0142459 -0.680234 3.79637 131 159 182 
0.0563812 -0.555913 4.07628 10 57 88 
0.0321003 -0.640118 3.90016 70 149 174 
0.0326642 -0.63913 3.90702 0 70 100 
0.0326642 -0.63913 3.90702 0 70 100 
0.0130624 -0.671894 3.81513 41 77 75 
0.0342484 -0.624397 3.93707 14 90 119 
0.0176947 -0.653433 3.8563 117 142 185 
0.0375549 -0.609838 3.968 4 42 58 
0.0395082 -0.610799 3.97338 63 117 135 
0.0249879 -0.643762 3.89094 8 60 86 
0.0275639 -0.634351 3.9161 62 147 174 
0.0275639 -0.634351 3.9161 62 147 174 
0.0239222 -0.639583 3.9036 70 147 173 
0.0239222 -0.639583 3.9036 70 147 173 
0.0479238 -0.544577 4.10275 7 49 89 
0.0188532 -0.646076 3.88697 85 143 166 
0.0374998 -0.596289 4.00571 57 125 148 
0.01779 -0.666364 3.8585 37 78 82 
0.0217684 -0.637148 3.91202 10 81 106 
0.0313483 -0.618333 3.96641 75 118 133 
0.00256896 -0.694305 3.78909 128 160 183 
0.0160623 -0.646096 3.89286 15 76 97 
0.0203025 -0.638875 3.91931 66 148 171 
0.0160911 -0.640712 3.9081 72 146 168 
0.010632 -0.648555 3.88791 58 152 169 
0.010632 -0.648555 3.88791 58 152 169 
0.0283695 -0.597449 4.00669 64 123 150 
0.0140411 -0.639833 3.92423 88 153 179 
0.00545418 -0.635179 3.92294 24 86 112 
-0.00488955 -0.646394 3.91119 17 67 100 
-0.0139821 -0.679601 3.85527 34 79 72 
-0.0284558 -0.670301 3.83134 74 86 168 
-0.0161672 -0.635322 3.93195 57 147 169 
-0.0321722 -0.656208 3.869 124 157 165 
-0.0204849 -0.634653 3.94989 1 64 86 
-0.0287499 -0.646528 3.91744 0 81 113 
-0.0220613 -0.629724 3.96582 24 54 77 
-0.0405739 -0.651781 3.89712 23 154 191 
-0.0536655 -0.711434 3.78373 136 174 189 
-0.0267578 -0.611013 4.01136 6 60 82 
-0.0267578 -0.611013 4.01136 6 60 82 
-0.0329143 -0.629487 3.96969 68 133 149 
-0.0319412 -0.627953 3.97874 68 140 152 
-0.0319412 -0.627953 3.97874 68 140 152 
-0.0437537 -0.646552 3.9221 18 150 175 
-0.0340664 -0.615347 4.00677 43 130 150 
-0.0340664 -0.615347 4.00677 43 130 150 
-0.0626802 -0.682621 3.8315 43 87 67 
-0.0393013 -0.629287 3.97664 19 55 76 
-0.0467725 -0.646695 3.93122 61 129 159 
-0.0501742 -0.647519 3.92223 53 151 184 
-0.0382545 -0.616032 4.00377 0 73 95 
-0.0510851 -0.64821 3.92754 0 63 96 
-0.0614846 -0.65257 3.90489 65 147 182 
-0.0747734 -0.669151 3.86358 0 53 73 
-0.0521069 -0.626563 3.98965 0 73 99 
-0.0656821 -0.647108 3.92785 47 147 175 
-0.0656821 -0.647108 3.92785 47 147 175 
-0.0720298 -0.658165 3.89453 1 85 115 
-0.0691295 -0.650416 3.91761 58 144 174 
-0.0801466 -0.663801 3.87987 52 158 185 
-0.0801466 -0.663801 3.87987 52 158 185 
-0.0625471 -0.629596 3.98484 37 151 175 
-0.0776007 -0.656191 3.90519 56 142 172 
-0.0728269 -0.643759 3.9416 9 78 109 
-0.0748509 -0.633689 3.96596 45 151 176 
-0.0969269 -0.671084 3.85034 136 166 172 
-0.0866026 -0.654503 3.90651 0 94 120 
-0.0820431 -0.645318 3.9367 54 156 178 
-0.0971658 -0.666035 3.86688 52 162 177 
-0.0971658 -0.666035 3.86688 52 162 177 
-0.0794005 -0.640065 3.95789 24 98 128 
-0.093542 -0.657463 3.89312 63 155 178 
-0.0756944 -0.626663 3.98963 47 156 189 
-0.0885583 -0.645222 3.94222 11 85 109 
-0.105657 -0.668021 3.86757 38 66 84 
-0.0949758 -0.644151 3.94031 72 114 138 
-0.0936227 -0.638332 3.95893 51 152 170 
-0.0935618 -0.629438 3.98661 1 94 121 
-0.100781 -0.643059 3.95108 15 47 70 
-0.128967 -0.682288 3.81541 134 171 173 
-0.127884 -0.681903 3.82209 62 99 100 
-0.10018 -0.630654 3.98108 66 150 171 
-0.136735 -0.693694 3.79308 138 167 181 
-0.106449 -0.634095 3.97109 21 53 76 
-0.141423 -0.682332 3.81988 148 172 189 
-0.114558 -0.623381 3.9952 43 59 83 
-0.147845 -0.667697 3.84497 153 177 195 
-0.173597 -0.678041 3.81384 153 168 204 
-0.191337 -0.669849 3.79995 91 90 182 
-0.15031 -0.602499 4.04275 36 64 87 
-0.15031 -0.602499 4.04275 36 64 87 
-0.167303 -0.586011 4.04484 138 166 184 
-0.179325 -0.584518 4.04431 74 93 132 
-0.231879 -0.634689 3.85765 151 169 187 
-0.238143 -0.633397 3.85981 82 98 114 
-0.263568 -0.621404 3.82929 168 182 193 
-0.234126 -0.61661 3.9172 86 106 119 
-0.234126 -0.61661 3.9172 86 106 119 
0.159101 -0.563095 3.87793 54 82 99 
0.146439 -0.580541 3.86559 65 89 98 
0.136902 -0.56663 3.90746 0 36 56 
0.0960298 0.232532 4.12702 0 28 49 
0.130333 -0.570802 3.91415 2 40 62 
0.117042 -0.573337 3.92965 0 32 53 
-0.00985529 -0.719296 3.2624 63 66 84 
0.109581 -0.582684 3.92366 32 74 98 
0.108876 -0.555223 3.96397 48 77 96 
0.103411 -0.56965 3.95303 1 33 56 
0.103411 -0.56965 3.95303 1 33 56 
0.0978148 -0.588338 3.9339 40 78 100 
0.0978148 -0.588338 3.9339 40 78 100 
0.0938696 -0.614863 3.90061 8 54 77 
0.0894835 -0.588472 3.8949 49 84 106 
0.105805 -0.501993 4.03976 0 25 47 
0.0894217 -0.604438 3.91075 37 82 107 
0.070704 -0.695366 3.78249 74 98 121 
0.070704 -0.695366 3.78249 74 98 121 
0.0817817 -0.588401 3.95617 49 84 106 
0.0817817 -0.588401 3.95617 49 84 106 
0.0789802 -0.581793 3.96447 41 73 90 
0.0608608 -0.696831 3.81411 2 28 52 
0.0760937 -0.545602 4.015 34 86 110 
0.0544371 -0.72796 3.79382 31 56 86 
0.0725473 -0.556957 4.00409 0 40 61 
0.0647907 -0.601572 3.95713 0 28 44 
0.0608651 -0.6135 3.93381 37 89 115 
0.0606465 -0.615333 3.93342 37 89 115 
0.0430906 -0.718178 3.78063 85 108 146 
0.0656952 -0.55349 4.01145 0 36 55 
0.0588793 -0.575482 3.98843 37 69 85 
0.0616542 -0.498849 4.08218 0 28 54 
0.0402515 -0.665645 3.85818 78 105 135 
0.0356582 -0.662396 3.87766 0 24 46 
0.0427356 -0.594237 3.96439 6 30 48 
0.0421345 -0.599792 3.96328 6 30 48 
0.0516089 -0.459073 4.12942 54 96 120 
0.0516089 -0.459073 4.12942 54 96 120 
0.0334398 -0.653704 3.89695 49 96 121 
0.0221941 -0.720385 3.80087 0 26 49 
0.0346957 -0.627737 3.93658 4 51 76 
0.028557 -0.644178 3.91383 45 93 120 
0.0415341 -0.469125 4.12716 0 37 66 
0.0195449 -0.681048 3.85573 11 43 60 
0.0248824 -0.644013 3.92407 0 47 74 
0.0147093 -0.671945 3.86583 82 112 135 
0.0277651 -0.564065 4.02687 0 30 59 
0.032871 -0.642747 3.99348 45 81 99 
0.0136454 -0.6507 3.91461 0 42 65 
0.0136454 -0.6507 3.91461 0 42 65 
0.00865217 -0.665317 3.89165 0 37 63 
0.00918491 -0.663585 3.90727 53 98 119 
0.00918491 -0.663585 3.90727 53 98 119 
0.0025236 -0.678043 3.88282 25 105 133 
-0.00721958 -0.662722 3.90477 0 41 71 
-0.008945 -0.650128 3.92386 56 103 128 
-0.0124326 -0.635562 3.94296 0 47 72 
-0.0147977 -0.645236 3.9305 48 94 121 
-0.0354939 -0.755571 3.76983 7 26 75 
-0.0238289 -0.652311 3.92998 0 39 64 
-0.027125 -0.659204 3.91451 0 50 82 
-0.037782 -0.782207 3.76494 16 31 92 
-0.0391556 -0.663694 3.89361 17 112 149 
-0.0332029 -0.625768 3.97112 53 93 109 
-0.0481912 -0.661304 3.9191 43 100 132 
-0.0526621 -0.659281 3.91634 0 40 72 
-0.0569437 -0.668735 3.90599 0 42 74 
-0.0569437 -0.668735 3.90599 0 42 74 
-0.0569628 -0.661681 3.91547 0 49 80 
-0.0579483 -0.653599 3.92721 0 49 79 
-0.0635231 -0.646295 3.93813 50 112 138 
-0.0645079 -0.65408 3.92629 47 110 136 
-0.0681178 -0.657654 3.91502 46 107 135 
-0.0639996 -0.618398 3.98833 29 109 137 
-0.0787302 -0.672066 3.86658 52 126 150 
-0.075341 -0.682211 3.88158 0 52 84 
-0.0726419 -0.644365 3.94255 0 56 82 
-0.0754562 -0.669993 3.90221 47 108 139 
-0.0789983 -0.67893 3.88441 1 55 84 
-0.0794067 -0.670042 3.90894 0 60 91 
-0.0775929 -0.612555 3.99474 35 122 150 
-0.0846404 -0.687522 3.87699 0 46 76 
-0.0841472 -0.670156 3.90301 1 69 94 
-0.0756304 -0.606847 4.02033 17 119 159 
-0.0873484 -0.684678 3.87149 55 123 146 
-0.0915506 -0.705 3.84247 103 134 142 
-0.0931726 -0.691398 3.8609 73 122 142 
-0.0931726 -0.691398 3.8609 73 122 142 
-0.088646 -0.658033 3.92226 17 65 92 
-0.105585 -0.680899 3.85692 105 135 158 
-0.107634 -0.686778 3.83985 109 139 151 
-0.0963996 -0.610331 3.99277 1 55 84 
-0.103341 -0.660851 3.91136 89 135 158 
-0.101735 -0.638477 3.95137 0 36 60 
-0.106919 -0.684024 3.87104 103 138 160 
-0.103519 -0.609026 3.98779 52 117 141 
-0.107977 -0.624428 3.97291 0 34 59 
-0.121796 -0.716204 3.81515 42 72 84 
-0.133677 -0.710238 3.78964 107 137 154 
-0.13659 -0.707784 3.81542 117 144 164 
-0.150723 -0.693976 3.82244 114 140 163 
-0.153488 -0.698278 3.81413 118 142 171 
-0.170786 -0.691295 3.81176 123 142 180 
-0.171351 -0.519593 4.06537 108 132 155 
-0.180743 -0.693237 3.80759 103 119 167 
-0.180078 -0.517207 4.06631 112 137 167 
-0.187553 -0.513587 4.07692 36 57 100 
-0.206375 -0.529166 4.04338 40 61 110 
-0.221097 -0.700277 3.74924 46 70 77 
-0.220661 -0.731688 3.71775 135 161 173 
-0.241905 -0.615654 3.86492 35 57 72 
-0.248182 -0.478265 4.06176 121 146 173 
-0.282366 -0.377129 4.14461 134 157 166 
-0.274775 -0.590999 3.84214 45 65 78 
-0.279632 -0.463266 4.0363 70 81 126 
-0.307977 -0.50614 3.93486 71 88 96 
0.0594933 -0.687527 3.80114 31 58 67 
0.0661228 -0.631095 3.91788 1 55 74 
0.0631809 -0.623638 3.9277 48 102 124 
0.0505982 -0.696982 3.77796 17 28 84 
0.0455457 -0.697538 3.78395 96 117 148 
0.0476373 -0.555353 4.07363 5 54 74 
0.0398478 -0.620844 3.95969 6 36 48 
0.0208658 -0.668608 3.8582 10 41 49 
0.0209861 -0.657372 3.88454 55 95 111 
0.0200108 -0.650251 3.91694 45 95 118 
0.0154713 -0.664626 3.86743 90 119 127 
0.00292708 -0.673745 3.88314 40 106 122 
-0.00657421 -0.6444 3.93394 6 51 72 
-0.0164219 -0.672198 3.85723 20 52 45 
-0.0190734 -0.64146 3.9498 8 42 53 
-0.036321 -0.662274 3.87702 50 126 144 
-0.0149303 -0.35058 4.42343 0 43 68 
-0.0427149 -0.651905 3.92274 63 117 139 
-0.0534552 -0.632663 3.97461 30 58 76 
-0.0563896 -0.654257 3.91786 0 51 75 
-0.0643104 -0.650846 3.92701 63 115 139 
-0.0643187 -0.623087 3.98771 48 113 137 
-0.0643187 -0.623087 3.98771 48 113 137 
-0.0721192 -0.647088 3.93345 5 58 82 
-0.0712426 -0.630538 3.97707 0 50 72 
-0.0743476 -0.640862 3.95097 2 57 82 
-0.077946 -0.662151 3.88777 0 48 74 
-0.0781237 -0.626116 3.98348 0 52 78 
-0.081438 -0.661908 3.89873 50 102 126 
-0.0806062 -0.630272 3.97254 47 107 130 
-0.0834019 -0.658349 3.90616 5 58 82 
-0.0895133 -0.669916 3.84879 93 118 125 
-0.0878027 -0.627481 3.97793 47 105 128 
-0.0892714 -0.65493 3.91456 57 105 128 
-0.0897506 -0.632714 3.9684 0 56 77 
-0.0923286 -0.677253 3.86505 61 102 123 
-0.0923286 -0.677253 3.86505 61 102 123 
-0.0959834 -0.672169 3.8616 85 114 133 
-0.0958772 -0.632392 3.9625 59 106 126 
-0.0966314 -0.634029 3.96231 58 105 125 
-0.0984936 -0.648097 3.92731 0 27 52 
-0.101674 -0.637133 3.95185 0 24 45 
-0.102886 -0.65243 3.91276 78 119 140 
-0.105106 -0.671813 3.85897 93 119 137 
-0.104286 -0.624673 3.9843 70 113 139 
-0.108204 -0.627379 3.97201 0 30 52 
-0.118241 -0.68361 3.81467 85 117 123 
-0.120333 -0.684269 3.82189 28 58 64 
-0.130764 -0.690158 3.80291 20 41 72 
-0.130764 -0.690158 3.80291 20 41 72 
-0.167315 -0.674447 3.8095 41 45 128 
-0.172237 -0.563203 4.05405 110 139 158 
-0.174642 -0.573835 4.06426 76 120 154 
-0.176892 -0.673585 3.82024 3 26 53 
-0.19599 -0.549457 4.0719 6 45 93 
-0.20037 -0.68275 3.7491 100 122 151 
-0.213744 -0.541629 4.08135 58 100 128 
-0.216147 -0.545208 4.06597 29 48 86 
-0.217538 -0.571863 4.02129 17 33 91 
-0.215216 -0.763951 3.49286 68 61 159 
-0.219209 -0.674253 3.73479 100 122 137 
-0.22109 -0.671812 3.75396 23 47 57 
-0.225746 -0.655744 3.79967 114 130 162 
-0.23484 -0.492199 4.13331 69 122 146 
-0.234762 -0.543808 4.05175 97 125 148 
-0.234735 -0.649916 3.76752 28 46 56 
-0.233903 -0.672101 3.72138 106 127 146 
-0.239802 -0.598906 3.91546 107 129 153 
-0.241298 -0.597402 3.92264 13 35 58 
-0.241298 -0.597402 3.92264 13 35 58 
-0.241861 -0.618841 3.86491 11 34 54 
-0.244733 -0.561038 3.99623 103 127 156 
-0.24919 -0.476225 4.15069 0 44 66 
-0.249421 -0.473461 4.15853 58 128 153 
-0.247632 -0.531899 4.04607 104 132 155 
-0.250123 -0.483795 4.13954 83 119 140 
-0.247459 -0.615369 3.87068 111 134 154 
-0.243096 -0.645663 3.30679 66 72 78 
-0.255367 -0.590289 3.90168 105 128 148 
-0.252802 -0.667017 3.70612 107 127 146 
-0.264501 -0.607056 3.84762 25 46 65 
-0.264501 -0.607056 3.84762 25 46 65 
-0.265884 -0.592999 3.88752 109 130 148 
-0.263137 -0.638025 3.76348 30 46 56 
-0.275881 -0.461579 4.1478 99 137 149 
-0.271682 -0.594353 3.86996 111 131 152 
-0.28003 -0.477925 4.11414 108 131 144 
-0.274899 -0.584626 3.90021 115 135 153 
-0.274549 -0.602253 3.83947 21 43 58 
-0.287383 -0.461976 4.13268 117 144 153 
-0.280635 -0.620496 3.76463 33 49 65 
-0.292269 -0.45975 4.11987 24 47 57 
-0.294933 -0.47868 4.09371 35 59 68 
-0.277251 -0.713066 3.52637 111 132 150 
-0.295211 -0.499347 4.05449 29 52 65 
-0.298443 -0.457308 4.12666 101 124 128 
-0.301423 -0.50473 4.03991 107 130 134 
-0.30614 -0.467607 4.08408 30 53 56 
-0.309511 -0.428481 4.15761 44 75 72 
-0.305917 -0.485246 4.06233 107 132 136 
-0.314127 -0.541527 3.92341 110 131 132 
-0.306052 -0.624274 3.669 115 136 151 
-0.307068 -0.619065 3.65469 42 56 96 
-0.311763 -0.590927 3.71457 42 63 72 
-0.325322 -0.551939 3.83735 117 140 149 
-0.366606 -0.498322 3.84775 64 79 87 
-0.0566308 -0.796957 3.52371 57 36 150 
-0.0626467 -0.80406 3.53515 160 152 216 
-0.140633 -0.730539 3.80566 124 155 163 
-0.189 -0.736048 3.78471 61 56 181 
-0.19698 -0.76848 3.73916 133 153 188 
-0.193047 -0.542547 4.07374 17 57 117 
-0.203805 -0.542006 4.07652 63 138 174 
-0.209623 -0.532141 4.08426 68 135 162 
-0.227734 -0.480141 4.12919 1 50 75 
-0.255095 -0.723515 3.71291 115 145 157 
-0.231295 -0.485122 4.12069 119 156 174 
-0.253153 -0.646404 3.85991 19 42 62 
-0.230169 -0.465525 4.13756 6 49 69 
-0.258972 -0.619938 3.91995 126 151 171 
-0.258395 -0.648117 3.85107 122 143 162 
-0.263421 -0.835811 3.41624 76 72 147 
-0.254011 -0.554482 3.98988 122 150 173 
-0.269815 -0.639081 3.84023 133 153 171 
-0.263312 -0.498615 4.07156 119 149 171 
-0.262729 -0.463137 4.12099 25 49 66 
-0.287791 -0.63629 3.83275 23 45 58 
-0.276322 -0.464488 4.10645 26 53 67 
-0.303662 -0.801138 3.5232 15 30 50 
-0.292132 -0.628584 3.82844 132 156 173 
-0.266776 -0.397629 4.18613 0 48 71 
-0.293156 -0.595087 3.89176 124 150 168 
-0.296711 -0.66108 3.75884 14 36 51 
-0.300528 -0.697185 3.68723 50 81 69 
-0.290699 -0.486957 4.05795 27 51 61 
-0.305823 -0.569663 3.92906 23 45 44 
-0.291311 -0.438134 4.1047 123 152 155 
-0.301542 -0.495013 4.03274 22 42 46 
-0.318966 -0.77382 3.53268 117 141 164 
-0.297716 -0.444013 4.09238 13 42 44 
-0.29135 -0.376506 4.17211 33 65 64 
-0.3045 -0.458652 4.06846 36 61 59 
-0.295432 -0.383353 4.16035 115 147 142 
-0.318902 -0.55464 3.92019 111 142 139 
-0.305177 -0.420171 4.10922 122 149 147 
-0.327743 -0.681165 3.66373 109 133 150 
-0.330758 -0.762281 3.508 43 66 86 
-0.318207 -0.415143 4.10291 105 135 127 
-0.327736 -0.662545 3.64454 20 33 83 
-0.33155 -0.646686 3.68031 40 69 72 
-0.332467 -0.664529 3.64982 120 139 170 
-0.338702 -0.72821 3.54014 19 39 58 
-0.338702 -0.72821 3.54014 19 39 58 
-0.339377 -0.734356 3.51917 25 48 68 
-0.339823 -0.715663 3.54422 118 138 157 
-0.339574 -0.676415 3.61426 111 126 170 
-0.341423 -0.656035 3.63637 120 135 169 
-0.341268 -0.558554 3.81913 120 143 156 
-0.340321 -0.640208 3.65558 115 137 161 
-0.345166 -0.663918 3.62403 37 49 91 
-0.341383 -0.652951 3.61859 106 117 164 
-0.344283 -0.735579 3.46304 12 36 59 
-0.344283 -0.735579 3.46304 12 36 59 
-0.34685 -0.650665 3.6289 112 128 160 
-0.351912 -0.550441 3.82367 114 143 146 
-0.349165 -0.706876 3.50414 120 135 154 
-0.353366 -0.691447 3.52201 123 137 153 
-0.3522 -0.386416 4.05978 31 59 55 
-0.358334 -0.453345 3.96538 82 94 99 
-0.36072 -0.521238 3.83637 117 142 145 
-0.360911 -0.419705 4.00642 120 134 139 
-0.360911 -0.419705 4.00642 120 134 139 
-0.356045 -0.369459 4.07127 29 52 49 
-0.360001 -0.380651 4.04991 33 55 54 
-0.362884 -0.404534 4.015 127 141 147 
-0.362478 -0.389679 4.03573 126 145 146 
-0.34942 -0.25388 4.21121 18 69 83 
-0.358759 -0.523983 3.77199 120 147 155 
-0.368756 -0.505073 3.84702 33 53 52 
-0.368756 -0.505073 3.84702 33 53 52 
-0.368855 -0.492391 3.86596 119 134 148 
-0.351453 -0.240648 4.20313 118 151 158 
-0.363969 -0.538017 3.72385 111 134 154 
-0.362176 -0.564571 3.66485 26 46 64 
-0.376764 -0.46766 3.87347 72 76 116 
-0.362244 -0.559757 3.63527 37 58 68 
-0.366899 -0.521187 3.71126 104 118 154 
-0.377654 -0.413451 3.94602 43 51 74 
-0.36105 -0.553612 3.62295 47 68 78 
-0.364231 -0.243206 4.15945 120 146 149 
-0.363469 -0.545676 3.60917 55 74 89 
-0.376633 -0.469674 3.719 114 130 155 
-0.186411 -0.710233 3.81005 127 136 187 
-0.242608 -0.617812 3.92647 122 145 165 
-0.251152 -0.640436 3.85464 117 135 154 
-0.282202 -0.630687 3.8348 15 34 55 
-0.289141 -0.625812 3.82938 125 146 165 
-0.289141 -0.625812 3.82938 125 146 165 
-0.293675 -0.567436 3.92974 115 138 151 
-0.292534 -0.657448 3.76062 19 42 52 
-0.296948 -0.556396 3.9441 27 52 42 
-0.285854 -0.480812 4.06139 16 39 52 
-0.282477 -0.451915 4.10103 46 70 80 
-0.282477 -0.451915 4.10103 46 70 80 
-0.306579 -0.560892 3.92677 25 48 51 
-0.306579 -0.560892 3.92677 25 48 51 
-0.280336 -0.42049 4.13941 123 147 157 
-0.298401 -0.491511 4.034 22 41 42 
-0.291853 -0.437509 4.10663 104 129 133 
-0.318217 -0.773588 3.53245 105 131 165 
-0.314203 -0.549731 3.92221 112 139 137 
-0.300074 -0.45324 4.07076 34 54 53 
-0.300074 -0.45324 4.07076 34 54 53 
-0.305865 -0.41978 4.10994 102 134 127 
-0.331504 -0.744703 3.54839 109 133 157 
-0.331575 -0.743912 3.53897 104 127 154 
-0.324294 -0.652416 3.68515 25 57 52 
-0.323827 -0.563995 3.84051 109 135 152 
-0.333494 -0.657197 3.68156 23 58 55 
-0.325082 -0.698723 3.58744 108 132 161 
-0.306355 -0.326114 4.20863 11 51 66 
-0.328749 -0.752086 3.49285 14 38 62 
-0.328749 -0.752086 3.49285 14 38 62 
-0.337152 -0.680943 3.61848 15 26 82 
-0.326743 -0.754751 3.47011 103 127 150 
-0.341789 -0.412049 4.0852 92 121 113 
-0.344645 -0.73972 3.51813 12 36 60 
-0.334491 -0.748566 3.48309 6 29 56 
-0.34005 -0.631957 3.686 103 129 146 
-0.339539 -0.66735 3.6212 20 32 86 
-0.345496 -0.660024 3.63532 113 136 169 
-0.342193 -0.660613 3.62601 45 59 107 
-0.3392 -0.71434 3.52729 107 128 147 
-0.3392 -0.71434 3.52729 107 128 147 
-0.349626 -0.54812 3.82405 106 131 145 
-0.353521 -0.540979 3.84127 22 50 46 
-0.342391 -0.745142 3.47225 2 28 56 
-0.342391 -0.745142 3.47225 2 28 56 
-0.325008 -0.296071 4.21818 59 136 156 
-0.346953 -0.414982 4.039 113 142 136 
-0.347925 -0.704589 3.54017 22 42 63 
-0.346504 -0.658377 3.61731 93 108 158 
-0.344362 -0.648197 3.62976 109 131 160 
-0.349068 -0.645655 3.62301 26 45 76 
-0.351409 -0.703683 3.52616 23 42 57 
-0.35786 -0.40526 4.03023 21 47 47 
-0.361587 -0.521877 3.837 110 134 141 
-0.355464 -0.690507 3.54056 101 122 153 
-0.355464 -0.690507 3.54056 101 122 153 
-0.361651 -0.420303 4.00629 119 137 141 
-0.361651 -0.420303 4.00629 119 137 141 
-0.356462 -0.694663 3.52099 104 119 139 
-0.367936 -0.458402 3.93442 65 56 130 
-0.361856 -0.402497 4.01626 114 132 136 
-0.356311 -0.375782 4.05277 19 43 43 
-0.356311 -0.375782 4.05277 19 43 43 
-0.36288 -0.389578 4.03644 121 141 145 
-0.358051 -0.686674 3.52875 23 41 66 
-0.357078 -0.699059 3.5047 16 30 46 
-0.368732 -0.505522 3.84639 25 48 45 
-0.368732 -0.505522 3.84639 25 48 45 
-0.370071 -0.493468 3.86667 118 130 152 
-0.372621 -0.466263 3.91011 72 63 131 
-0.372621 -0.466263 3.91011 72 63 131 
-0.359825 -0.688831 3.51349 20 33 52 
-0.359825 -0.688831 3.51349 20 33 52 
-0.354806 -0.699675 3.48178 104 124 145 
-0.366391 -0.367068 4.05324 118 139 140 
-0.374922 -0.432123 3.95474 72 57 142 
-0.379919 -0.484198 3.87393 24 24 71 
-0.369977 -0.388433 4.01882 27 37 49 
-0.373695 -0.467809 3.88976 79 74 129 
-0.373695 -0.467809 3.88976 79 74 129 
-0.355376 -0.660333 3.53269 99 113 153 
-0.360645 -0.679149 3.50852 101 116 130 
-0.352513 -0.690161 3.47521 93 116 136 
-0.379957 -0.452486 3.90638 25 33 56 
-0.35408 -0.23931 4.21691 51 135 158 
-0.359488 -0.607541 3.61434 99 117 152 
-0.379466 -0.395991 3.99316 69 64 119 
-0.37639 -0.396531 3.98733 30 24 83 
-0.375392 -0.376835 4.01663 75 75 117 
-0.369332 -0.529324 3.75268 100 126 154 
-0.351417 -0.23329 4.21267 13 53 69 
-0.357568 -0.572164 3.66117 100 121 140 
-0.36549 -0.577651 3.65684 96 117 135 
-0.392997 -0.479455 3.85623 76 77 121 
-0.367096 -0.677589 3.48795 23 35 46 
-0.370157 -0.529922 3.73196 96 118 141 
-0.361576 -0.580695 3.63341 105 126 145 
-0.378474 -0.49339 3.79879 29 46 36 
-0.356326 -0.237875 4.18515 109 140 148 
-0.39186 -0.467169 3.85737 21 18 69 
-0.385699 -0.393817 3.96889 72 49 157 
-0.385699 -0.393817 3.96889 72 49 157 
-0.368544 -0.548932 3.68868 99 118 156 
-0.36766 -0.578145 3.63876 105 126 141 
-0.369617 -0.569496 3.65323 24 48 55 
-0.359501 -0.585403 3.61164 96 120 143 
-0.376525 -0.522042 3.73824 93 112 151 
-0.380243 -0.516108 3.74704 40 45 125 
-0.377182 -0.524343 3.72732 11 28 58 
-0.373101 -0.554018 3.6713 100 119 152 
-0.374628 -0.529753 3.70937 93 112 145 
-0.365696 -0.570401 3.6271 100 121 131 
-0.386985 -0.391015 3.94715 23 23 59 
-0.36354 -0.547967 3.65771 31 56 59 
-0.367841 -0.565999 3.63396 7 27 40 
-0.367841 -0.565999 3.63396 7 27 40 
-0.382233 -0.330123 4.03346 30 25 82 
-0.357782 -0.560388 3.61813 99 120 130 
-0.377864 -0.523844 3.705 81 99 134 
-0.376455 -0.235678 4.16553 107 139 155 
-0.369798 -0.657049 3.47165 20 40 58 
-0.367981 -0.646457 3.48315 20 38 56 
-0.384073 -0.522378 3.7061 25 45 63 
-0.384073 -0.522378 3.7061 25 45 63 
-0.392431 -0.381515 3.94557 31 38 59 
-0.392431 -0.381515 3.94557 31 38 59 
-0.373218 -0.637639 3.50096 105 124 149 
-0.392544 -0.327656 4.02158 24 17 85 
-0.369885 -0.639778 3.48336 93 113 134 
-0.37056 -0.553245 3.60738 27 43 59 
-0.369517 -0.61153 3.50827 100 127 159 
-0.368082 -0.546026 3.60149 16 36 54 
-0.372585 -0.538568 3.61621 106 123 131 
-0.38212 -0.221023 4.13477 30 59 61 
-0.395394 -0.427472 3.81361 72 51 161 
-0.385725 -0.480282 3.71526 100 119 150 
-0.404099 -0.389943 3.87634 34 36 66 
-0.362978 -0.535512 3.5694 94 127 154 
-0.385834 -0.472526 3.70142 91 107 141 
-0.381212 -0.538561 3.58946 108 127 148 
-0.38752 -0.485186 3.68199 72 97 101 
-0.389754 -0.244576 4.06072 68 63 130 
-0.390143 -0.244894 4.06045 68 63 130 
-0.369618 -0.570191 3.51468 51 69 120 
-0.378599 -0.487657 3.65713 27 50 45 
-0.397984 -0.434591 3.76781 100 107 158 
-0.400892 -0.289207 3.99303 68 49 153 
-0.393156 -0.204714 4.10333 31 55 55 
-0.400655 -0.435151 3.75475 24 40 72 
-0.388538 -0.210279 4.08666 119 135 145 
-0.366493 -0.552754 3.51943 99 114 174 
-0.403814 -0.289358 3.97095 33 33 80 
-0.403814 -0.289358 3.97095 33 33 80 
-0.399769 -0.409769 3.76188 16 22 63 
-0.406548 -0.411234 3.763 31 39 68 
-0.406548 -0.411234 3.763 31 39 68 
-0.401923 -0.413759 3.74957 102 110 151 
-0.386546 -0.459303 3.64758 108 130 145 
-0.371182 -0.492417 3.57352 29 47 71 
-0.364436 -0.491465 3.56464 108 131 151 
-0.371714 -0.483275 3.58765 37 50 76 
-0.360624 -0.574244 3.42279 33 56 66 
-0.386645 -0.118476 4.14923 24 52 58 
-0.374923 -0.486278 3.56815 118 142 159 
-0.407946 -0.40019 3.74558 80 94 110 
-0.326964 -0.585719 3.34321 31 56 70 
-0.370985 -0.47077 3.57278 111 136 150 
-0.369835 -0.481135 3.55413 34 58 75 
-0.369835 -0.481135 3.55413 34 58 75 
-0.393976 -0.111675 4.14772 92 131 157 
-0.412203 -0.11124 4.17275 35 132 163 
-0.406061 -0.104007 4.13592 72 117 154 
-0.34586 -0.527488 3.40986 48 62 78 
-0.410266 -0.099345 4.13676 8 76 106 
-0.426608 -0.11499 4.12395 5 64 98 
-0.376305 -0.400684 3.61967 114 139 137 
-0.3956 -0.169176 3.99085 80 79 130 
-0.3956 -0.169176 3.99085 80 79 130 
-0.347427 -0.411825 3.55799 121 145 155 
-0.403017 -0.0828824 4.12487 71 118 159 
-0.409275 -0.174337 3.99819 43 46 89 
-0.412645 -0.184675 3.97907 80 76 139 
-0.348456 -0.399505 3.56384 46 70 80 
-0.349413 -0.413178 3.5408 118 142 152 
-0.34932 -0.412821 3.5412 118 142 152 
-0.39161 -0.347728 3.69493 32 63 65 
-0.39161 -0.347728 3.69493 32 63 65 
-0.371825 -0.369333 3.63326 42 69 67 
-0.409711 -0.310591 3.7669 48 38 108 
-0.401196 -0.135491 4.01146 96 107 138 
-0.391812 -0.134162 3.99471 41 48 91 
-0.399788 -0.13231 4.00462 112 116 176 
-0.404961 -0.130841 4.01034 53 64 103 
-0.414242 -0.295904 3.77822 43 38 93 
-0.392406 -0.122864 3.9831 41 47 88 
-0.394939 -0.286363 3.73195 41 45 86 
-0.405506 -0.2869 3.7447 110 100 172 
-0.395425 -0.111616 3.98342 116 128 150 
-0.388289 -0.0295959 4.08671 104 140 181 
-0.399522 -0.219962 3.82161 87 82 139 
-0.388293 -0.0169265 4.09207 25 88 120 
-0.304924 -0.737145 3.55671 106 131 161 
-0.361842 -0.547442 3.83538 17 48 45 
-0.358141 -0.553397 3.81953 108 136 142 
-0.401052 -0.407932 4.02318 27 45 50 
-0.325271 -0.64986 3.63026 14 29 85 
-0.327286 -0.647199 3.63263 36 55 99 
-0.378892 -0.513016 3.83982 26 45 46 
-0.378892 -0.513016 3.83982 26 45 46 
-0.333109 -0.642097 3.63424 105 124 163 
-0.313772 -0.693727 3.53502 98 117 141 
-0.324308 -0.688618 3.53649 14 34 55 
-0.324952 -0.694056 3.52691 85 105 126 
-0.39465 -0.479323 3.85678 71 65 129 
-0.317027 -0.701128 3.49835 92 125 154 
-0.328614 -0.67958 3.53088 100 120 139 
-0.32643 -0.682708 3.51517 12 28 44 
-0.331153 -0.662871 3.54436 103 125 148 
-0.376634 -0.518006 3.76751 17 48 50 
-0.329898 -0.6729 3.52359 17 32 46 
-0.370961 -0.530767 3.73132 97 119 154 
-0.329612 -0.673029 3.51152 101 115 126 
-0.331352 -0.65405 3.52856 8 28 46 
-0.369561 -0.526331 3.71176 89 107 155 
-0.350947 -0.567405 3.64636 99 120 138 
-0.351916 -0.58373 3.62075 0 24 52 
-0.351916 -0.58373 3.62075 0 24 52 
-0.336216 -0.66014 3.49902 21 34 48 
-0.358098 -0.545502 3.65893 25 54 48 
-0.355964 -0.558985 3.63852 9 32 45 
-0.355964 -0.558985 3.63852 9 32 45 
-0.350014 -0.566089 3.61378 99 123 146 
-0.353344 -0.557296 3.62035 87 111 129 
-0.444147 -0.216465 4.12552 105 137 148 
-0.32416 -0.655794 3.4692 90 122 151 
-0.36169 -0.538637 3.63854 23 46 50 
-0.381068 -0.486417 3.71709 100 119 152 
-0.363788 -0.538762 3.63712 25 47 46 
-0.360644 -0.543928 3.62735 104 122 133 
-0.337348 -0.624146 3.50698 16 40 58 
-0.43681 -0.242725 4.07094 22 46 53 
-0.336957 -0.628434 3.49388 4 26 41 
-0.383003 -0.479028 3.71589 90 111 144 
-0.354703 -0.542926 3.61418 21 42 61 
-0.355633 -0.54831 3.60447 103 128 148 
-0.432222 -0.312581 3.95209 26 32 65 
-0.33396 -0.624872 3.48277 13 41 64 
-0.359781 -0.530353 3.62153 96 114 125 
-0.403558 -0.439568 3.76371 94 106 158 
-0.337109 -0.626713 3.47615 96 126 149 
-0.346159 -0.580731 3.54194 37 59 118 
-0.346159 -0.580731 3.54194 37 59 118 
-0.450419 -0.196581 4.1087 23 52 54 
-0.335344 -0.618357 3.48261 21 51 74 
-0.384263 -0.472404 3.70096 94 114 149 
-0.375333 -0.477563 3.68699 79 106 114 
-0.405792 -0.42508 3.76829 24 32 61 
-0.356596 -0.530528 3.59991 25 51 74 
-0.35895 -0.526187 3.6053 8 27 51 
-0.359739 -0.522879 3.60863 17 38 57 
-0.345182 -0.566622 3.52901 95 117 176 
-0.361246 -0.511892 3.60793 56 57 127 
-0.408927 -0.417821 3.75563 23 26 76 
-0.408642 -0.414418 3.76012 25 33 62 
-0.379359 -0.463273 3.681 90 112 157 
-0.402543 -0.415465 3.74783 95 108 158 
-0.445299 -0.158189 4.10933 90 128 158 
-0.307714 -0.548507 3.51271 17 53 80 
-0.4047 -0.40592 3.74559 25 42 72 
-0.362602 -0.510331 3.58714 97 125 148 
-0.382736 -0.448267 3.67616 32 44 120 
-0.34598 -0.536714 3.53815 50 66 144 
-0.405985 -0.399068 3.74629 74 86 115 
-0.340251 -0.552928 3.50769 100 130 169 
-0.339362 -0.535732 3.52897 91 113 173 
-0.339362 -0.535732 3.52897 91 113 173 
-0.342127 -0.548825 3.51154 98 123 177 
-0.376826 -0.452178 3.6523 97 130 149 
-0.459849 -0.141114 4.08632 79 123 170 
-0.343235 -0.531338 3.51836 101 119 190 
-0.343235 -0.531338 3.51836 101 119 190 
-0.315187 -0.607665 3.3995 90 127 152 
-0.429713 -0.296213 3.85893 72 59 145 
-0.35609 -0.482621 3.57901 8 34 58 
-0.359861 -0.478577 3.58157 16 42 65 
-0.416007 -0.336983 3.79066 38 23 103 
-0.440023 -0.202615 3.97649 30 41 66 
-0.421781 -0.322165 3.81136 77 54 162 
-0.329614 -0.571184 3.43959 41 70 89 
-0.329614 -0.571184 3.43959 41 70 89 
-0.42818 -0.28593 3.85137 31 35 69 
-0.425418 -0.306517 3.8239 33 35 71 
-0.32572 -0.563278 3.43149 113 137 154 
-0.359627 -0.463631 3.57649 110 140 152 
-0.331277 -0.552215 3.44787 26 51 65 
-0.350531 -0.468384 3.56113 7 37 53 
-0.350531 -0.468384 3.56113 7 37 53 
-0.335133 -0.513645 3.49398 69 92 149 
-0.351986 -0.474336 3.54981 113 141 159 
-0.316225 -0.567415 3.41203 110 138 156 
-0.321849 -0.56248 3.41863 43 65 80 
-0.326304 -0.553178 3.43276 15 37 50 
-0.425701 -0.0800813 4.08864 67 125 154 
-0.416235 -0.317754 3.77578 30 17 97 
-0.403578 -0.347305 3.7305 28 32 72 
-0.42653 -0.302363 3.79868 78 64 153 
-0.412302 -0.318739 3.77091 94 74 169 
-0.434464 -0.219088 3.90703 72 68 131 
-0.410684 -0.324144 3.75823 97 72 182 
-0.323144 -0.552513 3.42231 126 142 153 
-0.362113 -0.423326 3.60665 61 62 136 
-0.328716 -0.532464 3.4502 120 146 169 
-0.383769 -0.377266 3.67056 16 49 46 
-0.353023 -0.457991 3.54939 116 142 160 
-0.410851 -0.30586 3.77185 86 77 145 
-0.403947 -0.333862 3.73049 97 97 169 
-0.323587 -0.528763 3.44006 35 52 66 
-0.409204 -0.317394 3.74476 99 87 170 
-0.366451 -0.394212 3.62305 103 132 128 
-0.396782 -0.346174 3.69698 115 149 166 
-0.428782 -0.218068 3.87025 77 71 135 
-0.437639 -0.0775225 4.05109 105 147 182 
-0.437639 -0.0775225 4.05109 105 147 182 
-0.422099 -0.241254 3.82863 87 81 145 
-0.419506 -0.257951 3.80507 86 80 144 
-0.441904 -0.0691708 4.05343 0 54 87 
-0.361826 -0.385528 3.60632 117 143 171 
-0.342361 -0.407955 3.56023 114 145 154 
-0.339521 -0.413561 3.55116 17 46 60 
-0.339521 -0.413561 3.55116 17 46 60 
-0.364405 -0.357122 3.62799 112 146 157 
-0.342032 -0.395327 3.56576 31 64 71 
-0.410186 -0.233165 3.80147 24 27 65 
-0.410186 -0.233165 3.80147 24 27 65 
-0.302394 -0.521187 3.38594 123 146 156 
-0.30244 -0.521316 3.38572 123 146 156 
-0.427032 -0.0787504 3.99904 51 62 134 
-0.420728 -0.164718 3.88501 40 37 98 
-0.335645 -0.394342 3.55322 22 51 60 
-0.412381 -0.190831 3.84027 78 69 147 
-0.346922 -0.360828 3.58899 120 150 172 
-0.393522 -0.262419 3.73473 106 93 167 
-0.410162 -0.145914 3.88576 45 53 82 
-0.410162 -0.145914 3.88576 45 53 82 
-0.312569 -0.43624 3.47588 123 142 173 
-0.351903 -0.347828 3.60431 121 153 170 
-0.352926 -0.348071 3.60356 121 153 170 
-0.410536 -0.20196 3.80919 40 29 113 
-0.412197 -0.1315 3.89281 31 43 72 
-0.409675 -0.134473 3.8835 78 93 113 
-0.414034 -0.118801 3.90073 120 142 141 
-0.409858 -0.123323 3.89306 109 129 134 
-0.358919 -0.313807 3.62259 127 162 170 
-0.284732 -0.403227 3.45616 34 50 74 
-0.270402 -0.390756 3.44522 65 81 92 
-0.379725 -0.0205811 3.9416 24 60 71 
-0.375388 -0.165745 3.75944 44 67 71 
-0.378404 -0.152578 3.77538 97 116 124 
-0.370756 -0.151489 3.75978 124 152 148 
-0.373374 -0.555786 3.80435 121 144 148 
-0.381707 -0.53341 3.72014 106 128 152 
-0.385978 -0.517151 3.73896 51 54 140 
-0.381868 -0.526002 3.71999 20 39 70 
-0.377875 -0.527552 3.70453 92 108 156 
-0.410227 -0.456552 3.81219 31 17 106 
-0.344489 -0.646641 3.49377 18 35 49 
-0.363638 -0.547265 3.65295 28 56 54 
-0.348823 -0.637751 3.49038 92 114 127 
-0.339415 -0.657044 3.4583 83 121 151 
-0.362917 -0.559218 3.61181 83 104 123 
-0.418968 -0.411244 3.83836 67 59 123 
-0.343993 -0.627503 3.48111 100 125 145 
-0.348552 -0.622168 3.48563 99 125 149 
-0.364601 -0.546266 3.61215 13 33 51 
-0.388258 -0.480724 3.71024 90 112 141 
-0.353574 -0.614878 3.49005 95 125 153 
-0.342512 -0.625591 3.47689 7 37 60 
-0.361322 -0.549494 3.59947 99 127 149 
-0.393411 -0.475973 3.71194 98 122 156 
-0.36424 -0.54477 3.60593 18 38 57 
-0.353038 -0.616886 3.48337 13 40 66 
-0.353237 -0.616869 3.48315 13 40 66 
-0.43326 -0.259797 4.06643 110 133 146 
-0.347482 -0.617381 3.47855 92 119 149 
