ply
format ascii 1.0
element vertex 1274
property float x
property float y
property float z
property uchar blue
property uchar green
property uchar red
end_header
0.360697 -1.56603 7.61394 51 97 124 
0.345422 -1.57222 7.6019 5 51 78 
0.383641 -1.53006 7.68386 54 101 121 
0.359941 -1.54424 7.64698 52 97 122 
0.31073 -1.58829 7.55539 41 116 152 
0.404994 -1.51797 7.72785 45 112 148 
0.368774 -1.54582 7.66828 61 102 123 
0.368774 -1.54582 7.66828 61 102 123 
0.282481 -1.59634 7.53312 16 117 155 
0.325818 -1.57091 7.6083 45 104 131 
0.325818 -1.57091 7.6083 45 104 131 
0.309755 -1.58132 7.59108 11 52 84 
0.304807 -1.58272 7.58476 0 41 74 
0.370252 -1.53093 7.70897 5 38 67 
0.341106 -1.55857 7.65355 13 43 66 
0.341106 -1.55857 7.65355 13 43 66 
0.353515 -1.54746 7.68644 15 44 70 
-0.261028 -1.80748 6.71375 33 28 107 
0.329032 -1.55164 7.69109 52 115 137 
0.329032 -1.55164 7.69109 52 115 137 
-0.528823 -1.81154 6.35894 87 81 150 
0.25124 -1.60013 7.57867 0 47 85 
0.315857 -1.5541 7.70857 0 43 80 
0.261845 -1.59314 7.61108 0 46 80 
0.098689 -1.67845 7.34037 9 39 67 
0.075616 -1.68312 7.30574 111 135 169 
0.233313 -1.60271 7.58545 45 113 146 
-0.316181 -1.76843 6.71706 43 35 99 
0.139326 -1.58746 7.46122 107 132 182 
0.167813 -1.64483 7.47541 97 127 155 
-0.517713 -1.82556 6.40827 87 79 129 
0.245717 -1.59335 7.62672 44 112 143 
0.172195 -1.62231 7.50849 41 125 155 
0.175477 -1.6319 7.51709 40 119 150 
0.215401 -1.60444 7.59008 0 53 86 
0.20439 -1.61876 7.57094 0 61 93 
0.229834 -1.59679 7.61962 0 57 90 
0.182248 -1.62741 7.54673 32 108 142 
0.153808 -1.62769 7.50768 62 125 151 
0.162639 -1.6359 7.5241 0 53 84 
0.189358 -1.63495 7.56267 0 67 102 
0.199161 -1.61009 7.59629 41 112 144 
0.0236176 -1.68601 7.30501 108 145 152 
0.235057 -1.57634 7.67225 52 118 149 
0.134095 -1.63828 7.50911 69 126 151 
0.192518 -1.61002 7.61369 0 70 102 
0.211381 -1.59378 7.65096 51 116 149 
0.180387 -1.61873 7.59416 0 69 101 
0.180387 -1.61873 7.59416 0 69 101 
0.153483 -1.62783 7.55803 0 68 99 
0.0169071 -1.71077 7.31726 34 73 63 
-0.400459 -1.76984 6.69093 98 76 176 
0.24022 -1.59871 7.69992 0 55 92 
0.157535 -1.63317 7.57076 40 114 149 
0.157535 -1.63317 7.57076 40 114 149 
0.129332 -1.63295 7.5414 45 127 156 
0.113109 -1.6534 7.51044 54 113 140 
0.136243 -1.6291 7.55793 0 70 104 
0.218199 -1.59214 7.70012 47 119 149 
-0.316806 -1.82852 6.80612 43 35 85 
0.0544547 -1.5829 7.48417 108 143 164 
0.195854 -1.59911 7.68083 59 122 153 
0.12747 -1.61956 7.57244 43 121 155 
0.182387 -1.61961 7.65157 49 117 150 
0.203493 -1.60147 7.6945 0 58 89 
0.203493 -1.60147 7.6945 0 58 89 
-0.362508 -1.7601 6.79801 153 144 180 
0.0981578 -1.65707 7.51298 62 129 156 
0.10512 -1.65088 7.52796 0 56 86 
0.0529995 -1.65935 7.44954 10 48 46 
0.121223 -1.64192 7.55753 0 72 100 
0.224355 -1.62454 7.71519 0 57 90 
0.0678294 -1.70629 7.47179 113 147 163 
0.0856296 -1.64851 7.53385 0 48 79 
0.0732758 -1.64727 7.5196 60 134 158 
0.234303 -1.55645 7.80338 0 74 108 
0.203968 -1.57535 7.75355 53 129 159 
0.196736 -1.58741 7.73729 5 67 93 
0.106022 -1.63384 7.58839 0 70 101 
0.0609931 -1.57797 7.56625 54 130 160 
0.256496 -1.56377 7.85378 0 72 106 
0.0373145 -1.69556 7.46732 17 53 46 
0.0527925 -1.63935 7.5235 47 136 160 
0.0686368 -1.65849 7.53923 0 59 91 
0.0686368 -1.65849 7.53923 0 59 91 
0.238442 -1.55931 7.84262 40 118 152 
0.238442 -1.55931 7.84262 40 118 152 
0.192576 -1.59402 7.76048 0 57 83 
0.192356 -1.5826 7.77545 56 122 152 
0.0713453 -1.66805 7.55683 51 136 164 
0.072587 -1.6448 7.57296 0 73 103 
0.072587 -1.6448 7.57296 0 73 103 
0.127993 -1.611 7.6759 0 59 86 
0.10689 -1.62692 7.6384 53 120 147 
0.0208958 -1.66774 7.49194 116 156 162 
0.115621 -1.61757 7.65787 2 60 89 
0.168648 -1.58314 7.75549 4 56 82 
0.0463136 -1.65593 7.54075 6 72 102 
0.0739151 -1.65266 7.58606 56 132 161 
0.0739151 -1.65266 7.58606 56 132 161 
0.17316 -1.58171 7.77263 55 111 140 
0.182926 -1.57068 7.79553 3 72 99 
0.182926 -1.57068 7.79553 3 72 99 
0.223762 -1.51751 7.88597 57 126 156 
0.223762 -1.51751 7.88597 57 126 156 
0.118493 -1.6153 7.68582 67 123 146 
0.215847 -1.55012 7.86713 0 74 100 
0.146741 -1.56105 7.76263 0 47 73 
0.0856539 -1.62387 7.63772 6 72 102 
0.0556065 -1.64616 7.58179 0 64 94 
0.0556065 -1.64616 7.58179 0 64 94 
0.234612 -1.54395 7.90025 5 68 100 
0.0322131 -1.68496 7.52649 39 143 167 
0.238574 -1.53156 7.91834 41 139 172 
0.180238 -1.57608 7.8088 50 120 147 
0.0985044 -1.63042 7.66179 50 101 127 
0.15754 -1.59494 7.77059 62 119 146 
0.0382291 -1.65613 7.57671 62 137 163 
0.162578 -1.61539 7.78062 9 70 98 
0.116802 -1.61472 7.71723 62 112 135 
0.116802 -1.61472 7.71723 62 112 135 
0.161695 -1.58491 7.80076 54 117 148 
0.0557328 -1.63095 7.62198 16 77 108 
0.0557328 -1.63095 7.62198 16 77 108 
-0.130064 -1.71634 7.30926 28 47 86 
-0.0218772 -1.6911 7.48032 26 60 55 
0.0193377 -1.65959 7.56465 15 62 93 
0.0134032 -1.66016 7.55793 0 63 92 
0.0468014 -1.65922 7.60768 56 139 164 
0.0468014 -1.65922 7.60768 56 139 164 
0.185225 -1.57093 7.85969 11 78 105 
0.0663861 -1.65649 7.64165 67 137 164 
0.035229 -1.66891 7.59688 3 60 87 
0.131744 -1.58508 7.79297 61 122 150 
-0.0365019 -1.68086 7.49347 112 143 146 
0.104662 -1.60107 7.74568 63 111 134 
0.111489 -1.60464 7.75571 1 48 73 
0.111489 -1.60464 7.75571 1 48 73 
0.0961013 -1.62855 7.7242 10 61 81 
0.0411162 -1.63659 7.64279 18 69 99 
0.188019 -1.56369 7.90185 4 67 93 
0.0149891 -1.66537 7.59153 63 137 161 
0.0149891 -1.66537 7.59153 63 137 161 
0.0865896 -1.60378 7.74266 70 118 141 
0.0785451 -1.57811 7.76259 2 50 73 
0.038103 -1.63706 7.66918 15 57 81 
0.038103 -1.63706 7.66918 15 57 81 
0.111622 -1.6029 7.80184 4 63 90 
0.069844 -1.61693 7.73668 70 117 137 
-0.190285 -1.71762 7.30934 30 49 109 
-0.0159031 -1.66851 7.59269 28 68 98 
0.120152 -1.58131 7.84757 13 72 97 
0.17505 -1.55283 7.95047 55 140 173 
0.110749 -1.6188 7.82193 17 79 103 
0.0454652 -1.63181 7.72131 76 120 144 
0.084479 -1.5735 7.81669 22 77 102 
-0.0427326 -1.67446 7.57614 58 141 166 
0.0713735 -1.57361 7.80386 73 129 152 
0.0972909 -1.57086 7.84753 70 127 152 
0.146318 -1.54938 7.93479 66 128 154 
0.146318 -1.54938 7.93479 66 128 154 
-0.0786768 -1.6931 7.52261 61 149 176 
0.132439 -1.57602 7.90045 21 78 99 
0.049401 -1.61987 7.75446 37 74 99 
0.14727 -1.58821 7.91693 18 76 99 
0.155859 -1.55094 7.9569 56 148 177 
0.103133 -1.57979 7.86457 13 66 90 
0.0751886 -1.60506 7.81117 19 75 98 
0.0614072 -1.60636 7.79083 17 71 93 
-0.0509801 -1.66862 7.59029 7 78 103 
-0.0509801 -1.66862 7.59029 7 78 103 
0.109007 -1.55663 7.89201 68 122 144 
0.109007 -1.55663 7.89201 68 122 144 
-0.0463321 -1.66027 7.60797 20 68 95 
-0.0734444 -1.68146 7.55982 15 91 121 
-0.0734444 -1.68146 7.55982 15 91 121 
-0.099596 -1.69278 7.51734 68 148 171 
0.114357 -1.54501 7.91975 57 113 136 
-0.0266151 -1.63305 7.67146 71 138 158 
0.0546014 -1.60528 7.80644 65 118 142 
-0.100085 -1.68811 7.534 0 79 107 
-0.100085 -1.68811 7.534 0 79 107 
-0.219618 -1.75445 7.32008 128 163 185 
-0.068451 -1.67298 7.59061 62 143 168 
-0.0882368 -1.68687 7.55747 66 144 173 
0.0183318 -1.63112 7.75103 54 143 165 
-0.101461 -1.68778 7.54807 69 149 177 
0.0301582 -1.60762 7.79041 73 133 156 
-0.0108725 -1.6429 7.71248 63 139 161 
0.0216128 -1.62145 7.7732 33 75 105 
-0.212476 -1.73775 7.36571 79 122 128 
-0.0986714 -1.68352 7.56814 11 91 120 
-0.0750563 -1.68013 7.60461 15 91 113 
0.0340285 -1.62033 7.80247 16 73 94 
-0.117293 -1.69503 7.53676 56 147 173 
-0.00197065 -1.62801 7.75052 0 80 104 
-0.232994 -1.74196 7.34484 58 100 104 
-0.219283 -1.72608 7.38079 21 54 90 
0.0474583 -1.5848 7.86526 66 117 137 
-0.227474 -1.75582 7.35935 112 149 174 
-0.0927436 -1.67653 7.6059 61 143 164 
-0.0927436 -1.67653 7.6059 61 143 164 
-0.215213 -1.72589 7.40047 128 166 188 
0.0944353 -1.57387 7.95442 52 154 184 
-0.037894 -1.64562 7.71811 28 76 105 
-0.150591 -1.70019 7.52059 63 152 176 
-0.0581113 -1.64857 7.69081 34 64 87 
-0.269578 -1.74381 7.32623 134 163 195 
-0.144907 -1.69563 7.53799 2 97 123 
0.00745106 -1.62893 7.80277 65 147 168 
0.00745106 -1.62893 7.80277 65 147 168 
-0.121164 -1.68576 7.58093 2 94 117 
-0.202116 -1.73078 7.43522 137 171 187 
-0.14327 -1.68659 7.55183 37 134 160 
-0.0713961 -1.67412 7.66481 63 106 121 
-0.137385 -1.68331 7.56902 0 95 123 
-0.166644 -1.70517 7.51442 65 158 179 
-0.157135 -1.69489 7.54442 50 147 172 
-0.157135 -1.69489 7.54442 50 147 172 
-0.0962973 -1.66879 7.65146 76 137 151 
-0.118783 -1.67619 7.61422 78 127 147 
-0.153081 -1.68407 7.56026 0 97 125 
-0.0231975 -1.61551 7.80056 30 71 103 
-0.111626 -1.67236 7.63559 23 51 74 
-0.111626 -1.67236 7.63559 23 51 74 
-0.186097 -1.69763 7.51274 62 149 169 
-0.0628606 -1.65492 7.72169 39 155 178 
-0.311542 -1.76825 7.29044 49 66 126 
-0.178027 -1.70265 7.52741 9 102 128 
-0.178027 -1.70265 7.52741 9 102 128 
0.0194827 -1.58731 7.89247 73 122 147 
0.0194827 -1.58731 7.89247 73 122 147 
-0.171326 -1.70889 7.53903 55 152 177 
-0.171326 -1.70889 7.53903 55 152 177 
-0.147632 -1.68824 7.58984 50 150 172 
-0.0987433 -1.67544 7.67321 20 57 73 
0.0273141 -1.56599 7.93794 53 154 180 
-0.0647594 -1.63257 7.76081 35 156 187 
-0.097441 -1.66364 7.69349 69 145 163 
0.0161091 -1.58813 7.90825 11 74 100 
-0.320782 -1.76144 7.31001 136 166 188 
-0.0105323 -1.59964 7.86698 20 58 86 
-0.138869 -1.68603 7.62398 26 46 65 
-0.225536 -1.71278 7.48109 16 53 78 
0.00249398 -1.59127 7.89419 16 68 94 
-0.228567 -1.70268 7.4857 32 69 94 
0.014966 -1.57724 7.92625 58 155 181 
-0.270041 -1.71157 7.42568 132 164 197 
-0.211167 -1.72105 7.50757 66 155 177 
-0.202573 -1.67421 7.55314 8 103 130 
-0.202573 -1.67421 7.55314 8 103 130 
-0.202752 -1.69849 7.53678 59 150 176 
-0.316467 -1.74351 7.34371 34 68 84 
-0.12146 -1.67876 7.67113 71 133 150 
-0.12146 -1.67876 7.67113 71 133 150 
-0.137456 -1.68163 7.64627 74 134 145 
-0.245866 -1.70635 7.47541 24 71 91 
-0.129446 -1.63758 7.69259 17 82 99 
-0.215145 -1.70859 7.52373 0 89 113 
-0.195758 -1.69299 7.56264 61 154 180 
-0.168694 -1.71104 7.59551 24 84 102 
-0.0529155 -1.60813 7.83869 28 75 106 
-0.232522 -1.70893 7.51212 69 151 174 
-0.232522 -1.70893 7.51212 69 151 174 
-0.0182368 -1.59305 7.90289 54 155 180 
-0.264076 -1.71656 7.46709 18 87 108 
-0.190991 -1.68948 7.59547 80 149 170 
-0.132318 -1.65686 7.70341 71 135 157 
-0.237569 -1.69568 7.5274 9 90 115 
-0.0457486 -1.59917 7.87613 7 81 110 
-0.171695 -1.66608 7.64888 77 130 143 
-0.243809 -1.71589 7.51318 69 151 174 
-0.243809 -1.71589 7.51318 69 151 174 
-0.26544 -1.72271 7.47886 71 153 176 
-0.26544 -1.72271 7.47886 71 153 176 
-0.172684 -1.65544 7.66487 25 81 96 
-0.238972 -1.6672 7.56301 25 103 127 
-0.191462 -1.67457 7.63371 72 111 123 
-0.264908 -1.63145 7.55789 65 154 178 
-0.155804 -1.6453 7.71897 18 89 114 
-0.275683 -1.72426 7.49131 7 82 108 
-0.0664833 -1.60793 7.8755 51 162 188 
-0.221516 -1.67549 7.60705 22 61 79 
-0.233321 -1.68175 7.58605 80 153 169 
-0.248377 -1.71999 7.54953 67 157 179 
-0.350282 -1.72748 7.40753 43 89 80 
-0.344829 -1.73119 7.42037 113 161 167 
-0.228413 -1.68187 7.62576 65 99 115 
-0.374944 -1.70939 7.39901 50 90 77 
-0.378032 -1.71615 7.395 48 88 80 
-0.253563 -1.6814 7.60546 25 65 80 
-0.413488 -1.73225 7.34377 63 97 90 
-0.335953 -1.70346 7.48361 46 159 185 
-0.379183 -1.70486 7.4226 39 110 133 
-0.20829 -1.65504 7.71368 72 156 177 
-0.224564 -1.67026 7.68519 21 81 99 
-0.310316 -1.6991 7.54246 36 86 109 
-0.290936 -1.68096 7.58595 31 80 99 
-0.306569 -1.68394 7.5657 78 149 165 
-0.343596 -1.69463 7.51627 78 156 180 
-0.275211 -1.67948 7.62943 38 75 90 
-0.300217 -1.69155 7.5966 84 128 145 
-0.358123 -1.69667 7.51907 39 105 127 
-0.315305 -1.67973 7.61308 37 89 105 
-0.415963 -1.7035 7.45403 71 125 143 
-0.398945 -1.69141 7.49995 80 134 152 
-0.363239 -1.69064 7.57196 103 158 173 
-0.391572 -1.68168 7.54532 111 160 174 
-0.360366 -1.67777 7.5964 60 113 127 
-0.507615 -1.70343 7.38549 170 182 188 
0.233855 -1.75103 6.41803 94 94 118 
0.379443 -1.64502 6.68681 63 69 99 
0.6289 -1.5249 7.15615 43 76 95 
0.555019 -1.57298 7.12276 36 56 74 
0.551998 -1.57095 7.20705 19 44 71 
0.533122 -1.5801 7.21715 72 93 124 
0.533122 -1.5801 7.21715 72 93 124 
0.626321 -1.52832 7.43094 66 93 107 
0.499436 -1.60598 7.21929 40 57 107 
0.445434 -1.63269 7.13371 11 29 54 
0.628384 -1.52135 7.46545 25 59 76 
0.607498 -1.57439 7.43698 21 49 66 
0.446556 -1.60957 7.17657 70 96 124 
0.487595 -1.61231 7.25912 45 70 100 
0.602613 -1.53974 7.46593 71 108 124 
0.602613 -1.53974 7.46593 71 108 124 
0.522888 -1.58917 7.38974 39 101 127 
0.496799 -1.59371 7.3563 9 27 52 
0.574561 -1.55445 7.49944 54 96 124 
0.550027 -1.58877 7.47666 10 52 76 
0.518182 -1.57642 7.43114 4 49 74 
0.515625 -1.57503 7.47142 8 51 77 
0.515625 -1.57503 7.47142 8 51 77 
0.500183 -1.5992 7.47775 45 91 118 
0.500183 -1.5992 7.47775 45 91 118 
0.488196 -1.58198 7.46072 7 53 80 
0.488196 -1.58198 7.46072 7 53 80 
0.458636 -1.62329 7.40383 49 107 125 
0.342446 -1.63859 7.30351 79 114 136 
0.444092 -1.61293 7.60565 55 92 110 
0.302555 -1.65469 7.35642 47 73 123 
0.302555 -1.65469 7.35642 47 73 123 
0.296182 -1.71805 7.35076 46 65 136 
-0.405052 -1.88439 6.14354 165 173 185 
0.408632 -1.59626 7.61406 5 43 64 
0.420654 -1.61373 7.63034 10 47 65 
0.212633 -1.64239 7.28515 92 121 151 
0.327856 -1.63371 7.55922 0 40 73 
0.22107 -1.69076 7.3648 39 44 155 
0.372565 -1.62571 7.66 52 99 118 
0.341636 -1.63141 7.61242 0 36 61 
0.313669 -1.63308 7.58519 10 50 80 
0.37414 -1.60415 7.70053 10 45 76 
0.37414 -1.60415 7.70053 10 45 76 
0.357098 -1.58884 7.68258 14 43 69 
0.234852 -1.64341 7.46158 92 122 150 
0.323564 -1.61887 7.63698 53 110 131 
0.323564 -1.61887 7.63698 53 110 131 
0.285767 -1.63489 7.58833 21 114 141 
0.333286 -1.60408 7.68613 50 112 136 
0.333286 -1.60408 7.68613 50 112 136 
0.285996 -1.63921 7.60441 36 110 139 
0.31863 -1.59445 7.70349 0 32 67 
0.238521 -1.66351 7.58055 44 117 149 
0.104413 -1.72471 7.33733 15 50 57 
0.0811069 -1.73019 7.30312 108 137 163 
0.249069 -1.63794 7.62222 40 108 139 
0.0839307 -1.71036 7.32694 20 41 90 
0.219743 -1.64961 7.58513 0 59 90 
0.23352 -1.64364 7.61517 0 57 90 
0.27441 -1.61333 7.70455 20 127 160 
0.253092 -1.61846 7.67924 6 56 90 
0.232245 -1.64042 7.63754 0 56 86 
0.210469 -1.61995 7.60663 41 117 147 
0.210469 -1.61995 7.60663 41 117 147 
0.239006 -1.61967 7.6679 44 116 145 
0.170145 -1.65336 7.54044 31 110 135 
0.170145 -1.65336 7.54044 31 110 135 
0.189042 -1.65114 7.57647 46 120 149 
0.226459 -1.62772 7.65671 0 65 94 
0.184597 -1.66333 7.5903 0 62 91 
0.136977 -1.66754 7.50622 64 127 149 
0.0290791 -1.73205 7.30182 105 139 144 
0.171296 -1.60493 7.60737 38 114 144 
0.220906 -1.62092 7.69621 54 126 156 
0.0250152 -1.76424 7.31332 25 64 54 
0.128933 -1.63531 7.54194 43 125 153 
0.114856 -1.66947 7.50929 57 120 142 
0.149104 -1.68896 7.56338 42 122 151 
0.149104 -1.68896 7.56338 42 122 151 
0.182755 -1.63321 7.6499 45 114 144 
0.151239 -1.63818 7.5946 43 123 152 
0.108533 -1.67981 7.52518 0 54 80 
0.21726 -1.62365 7.74164 34 131 157 
-0.00803047 -1.79004 7.30047 75 112 108 
0.060446 -1.71636 7.44282 7 42 43 
0.194509 -1.60056 7.72205 43 129 153 
0.0680979 -1.70205 7.47174 109 147 159 
0.198098 -1.60408 7.73557 0 49 81 
0.198098 -1.60408 7.73557 0 49 81 
0.204861 -1.59366 7.75098 51 127 157 
0.0898563 -1.68536 7.52998 0 50 78 
0.0772214 -1.68224 7.51569 54 133 158 
0.112303 -1.68693 7.58087 0 75 104 
0.238567 -1.56929 7.83952 44 125 156 
0.238567 -1.56929 7.83952 44 125 156 
0.00391501 -1.68282 7.39821 56 60 142 
0.128954 -1.64747 7.63637 0 67 92 
0.071332 -1.67853 7.53649 0 51 80 
0.215385 -1.53715 7.83459 0 65 96 
0.0718921 -1.67114 7.55604 50 136 160 
0.174324 -1.64452 7.74532 9 55 84 
0.133696 -1.62507 7.68577 58 120 144 
0.074071 -1.65919 7.57148 0 66 95 
0.074071 -1.65919 7.57148 0 66 95 
0.118136 -1.64647 7.65673 0 58 85 
0.183934 -1.58814 7.79298 0 65 95 
0.183934 -1.58814 7.79298 0 65 95 
0.226281 -1.54749 7.88237 58 130 159 
0.226281 -1.54749 7.88237 58 130 159 
0.233228 -1.53986 7.90131 0 59 90 
0.216152 -1.55739 7.86561 0 67 96 
0.216152 -1.55739 7.86561 0 67 96 
0.237505 -1.53529 7.91921 43 136 168 
0.119401 -1.62732 7.68332 54 110 133 
0.181202 -1.58977 7.80702 58 127 157 
0.157666 -1.59856 7.77024 65 117 143 
0.147597 -1.58006 7.75989 0 47 72 
-0.0399367 -1.70471 7.39434 23 54 39 
0.0314121 -1.67968 7.52675 34 140 164 
0.0569861 -1.66128 7.57988 0 55 81 
0.0569861 -1.66128 7.57988 0 55 81 
0.158215 -1.57148 7.78844 7 69 95 
0.0196179 -1.66573 7.51806 55 148 169 
0.162537 -1.59443 7.79976 55 121 151 
0.218488 -1.54245 7.91615 14 64 98 
0.115988 -1.60848 7.71837 61 115 137 
0.115988 -1.60848 7.71837 61 115 137 
0.135317 -1.63166 7.74717 6 53 78 
0.184714 -1.57175 7.85805 9 76 103 
0.0391458 -1.66608 7.57552 60 145 172 
0.020929 -1.67501 7.54379 35 128 155 
0.0580193 -1.65197 7.61974 0 65 95 
0.0632805 -1.64726 7.64309 52 134 157 
0.000566065 -1.68301 7.51819 71 149 171 
0.0448313 -1.65168 7.60877 59 137 165 
-0.024291 -1.67138 7.48345 20 57 48 
0.0212402 -1.6747 7.56209 2 52 85 
0.0319052 -1.65182 7.59928 0 55 83 
0.0319052 -1.65182 7.59928 0 55 83 
0.133009 -1.57952 7.80477 5 66 97 
0.193296 -1.52048 7.93451 13 63 97 
0.0834872 -1.60717 7.70948 60 125 145 
-0.126174 -1.74276 7.30718 16 47 56 
-0.421373 -1.85379 6.75579 238 226 250 
0.0433533 -1.64917 7.63912 14 69 96 
-0.0336044 -1.7014 7.49086 110 141 144 
0.0875782 -1.61766 7.73978 69 113 137 
0.139724 -1.56971 7.85103 68 133 159 
0.109442 -1.5878 7.80378 0 64 90 
0.17391 -1.52153 7.94258 6 61 94 
-0.144864 -1.75618 7.30636 27 49 89 
0.0789078 -1.59129 7.75868 1 45 69 
0.0685177 -1.61102 7.73668 66 116 139 
0.021501 -1.64744 7.64545 51 144 163 
0.0867159 -1.61166 7.76967 63 122 143 
0.159217 -1.53152 7.93334 63 124 152 
0.117204 -1.56481 7.84993 7 69 93 
-0.00108773 -1.65673 7.60975 72 137 161 
0.121486 -1.55761 7.86516 54 116 140 
0.0898926 -1.59464 7.79513 60 122 146 
0.0898926 -1.59464 7.79513 60 122 146 
0.0535113 -1.60074 7.73167 66 125 146 
0.0535113 -1.60074 7.73167 66 125 146 
0.0729553 -1.59025 7.77622 67 128 149 
-0.0725681 -1.69765 7.4836 124 151 159 
0.0413189 -1.59568 7.72528 63 129 146 
0.021019 -1.64862 7.67847 72 136 158 
0.130497 -1.56021 7.90212 12 72 95 
0.141926 -1.52114 7.93997 66 128 154 
0.0850778 -1.57989 7.82116 66 125 152 
0.0850778 -1.57989 7.82116 66 125 152 
0.115094 -1.56255 7.88066 21 81 104 
0.0949178 -1.56031 7.84993 69 129 152 
0.0475495 -1.60704 7.75453 34 71 96 
0.0997319 -1.56291 7.86733 9 67 90 
-0.042021 -1.67744 7.57572 54 142 170 
-0.037034 -1.66039 7.59187 63 122 147 
0.105207 -1.53567 7.89403 62 119 140 
0.0788473 -1.5756 7.83879 22 78 101 
-0.000349581 -1.63976 7.68874 18 53 82 
-0.0467153 -1.66467 7.60732 3 59 82 
-0.462343 -1.84398 6.80725 59 36 176 
-0.108566 -1.69729 7.489 135 161 179 
0.0598772 -1.57827 7.83668 79 133 155 
0.0598772 -1.57827 7.83668 79 133 155 
0.0139216 -1.5993 7.754 46 145 163 
-0.106498 -1.83911 7.45601 135 166 179 
-0.0702144 -1.65801 7.59179 64 147 172 
0.0266581 -1.58378 7.79326 59 130 151 
0.0147239 -1.57429 7.78036 38 71 100 
-0.0151084 -1.6107 7.71617 53 142 166 
-0.136396 -1.66758 7.48922 138 168 185 
-0.122646 -1.68948 7.51115 67 135 158 
-0.222838 -1.73486 7.32169 130 163 182 
-0.137473 -1.65481 7.50348 21 49 71 
-0.18803 -1.70734 7.39737 35 82 71 
0.0442929 -1.56144 7.86937 73 126 148 
0.0653515 -1.53458 7.92021 20 70 93 
0.0653515 -1.53458 7.92021 20 70 93 
-0.119396 -1.67734 7.53896 72 160 184 
0.0526281 -1.5498 7.89457 69 119 142 
-0.212753 -1.73323 7.3665 85 132 127 
-0.096185 -1.65381 7.60755 76 152 174 
-0.0026713 -1.56064 7.81369 63 142 162 
-0.0419495 -1.61546 7.72287 41 96 128 
0.00675315 -1.57927 7.82311 19 69 92 
-0.233846 -1.73499 7.34558 55 97 101 
0.043942 -1.57243 7.90256 12 65 89 
-0.0604095 -1.63107 7.69206 29 69 93 
-0.0286161 -1.57275 7.77218 30 149 176 
-0.217257 -1.73805 7.37908 33 64 100 
-0.0773712 -1.63468 7.66915 74 116 133 
-0.0773712 -1.63468 7.66915 74 116 133 
-0.255982 -1.74915 7.31254 139 163 203 
-0.215056 -1.72156 7.40067 131 160 199 
-0.201877 -1.72642 7.4354 135 169 186 
-0.0270892 -1.5892 7.80217 39 71 104 
-0.101749 -1.63647 7.65555 81 144 158 
-0.170648 -1.68162 7.51659 61 157 174 
0.0136017 -1.55361 7.89767 73 124 150 
0.0136017 -1.55361 7.89767 73 124 150 
-0.121881 -1.66176 7.61479 72 132 150 
-0.278497 -1.69789 7.32846 131 166 188 
-0.117367 -1.63751 7.63862 17 50 69 
-0.153574 -1.68443 7.55904 0 93 119 
-0.107658 -1.61786 7.67976 28 52 75 
-0.0333059 -1.55933 7.83888 53 141 159 
-0.182391 -1.67565 7.52955 4 101 126 
-0.0934905 -1.61569 7.71348 22 81 108 
-0.0178617 -1.55537 7.87523 28 61 88 
-0.174802 -1.6843 7.54172 47 144 169 
-0.0710014 -1.5962 7.7637 32 155 187 
-0.105653 -1.61237 7.69933 68 153 167 
-0.142797 -1.65982 7.6261 29 50 69 
-0.128955 -1.6319 7.67636 71 132 146 
-0.128955 -1.6319 7.67636 71 132 146 
-0.146855 -1.62525 7.65254 70 137 148 
-0.232157 -1.67599 7.48336 17 51 78 
-0.218207 -1.67836 7.5117 60 156 179 
-0.270092 -1.68932 7.41681 77 84 191 
-0.0272125 -1.53505 7.91073 41 157 180 
-0.124569 -1.6135 7.70566 72 150 168 
-0.0617129 -1.55412 7.84704 35 76 108 
-0.205614 -1.68066 7.53779 56 149 175 
-0.136975 -1.59717 7.69671 20 82 100 
-0.17928 -1.64764 7.60132 17 83 99 
-0.145359 -1.64173 7.66483 22 84 96 
-0.324029 -1.74171 7.31164 135 167 190 
-0.222204 -1.66689 7.52738 0 80 103 
-0.222204 -1.66689 7.52738 0 80 103 
-0.272294 -1.70114 7.4259 129 163 188 
-0.0558574 -1.53528 7.88564 24 73 106 
-0.140396 -1.60785 7.7088 55 138 157 
-0.319356 -1.72755 7.34448 42 81 82 
-0.238432 -1.67447 7.51491 60 154 177 
-0.203291 -1.66755 7.58005 22 92 119 
-0.198518 -1.64648 7.59901 59 148 164 
-0.176509 -1.64082 7.65067 70 123 137 
-0.29175 -1.66296 7.43517 57 98 105 
-0.146211 -1.59585 7.72398 9 77 107 
-0.156582 -1.59408 7.71101 72 134 160 
-0.243381 -1.6653 7.52993 11 79 109 
-0.243381 -1.6653 7.52993 11 79 109 
-0.0781595 -1.52461 7.88878 46 160 188 
-0.262699 -1.73317 7.4767 70 153 172 
-0.197675 -1.63945 7.63679 75 113 128 
-0.371775 -1.76538 7.27762 56 77 132 
-0.185408 -1.67292 7.65467 25 76 90 
-0.16409 -1.60113 7.72345 15 76 104 
-0.174546 -1.59656 7.70844 74 133 154 
-0.226125 -1.64922 7.61144 25 61 79 
-0.240705 -1.64214 7.5914 62 147 161 
-0.183615 -1.5954 7.71856 26 82 105 
-0.212045 -1.55123 7.69029 19 72 86 
-0.375097 -1.48301 7.44614 137 165 182 
-0.283042 -1.6741 7.52732 54 151 172 
-0.200799 -1.59145 7.71438 10 72 96 
-0.377851 -1.73055 7.3515 80 95 163 
-0.369759 -1.60463 7.43063 123 161 176 
-0.235927 -1.63632 7.65697 26 65 77 
-0.262121 -1.63128 7.61101 24 61 76 
-0.2461 -1.65494 7.63792 28 61 74 
-0.364281 -1.61556 7.44253 33 88 113 
-0.356386 -1.64292 7.45274 66 160 193 
-0.256123 -1.60599 7.65996 63 100 115 
-0.377166 -1.72676 7.39423 43 86 76 
-0.35012 -1.63273 7.48676 50 159 190 
-0.240587 -1.59278 7.70684 73 145 166 
-0.256015 -1.58853 7.68221 35 72 88 
-0.322027 -1.63665 7.54884 34 72 100 
-0.425719 -1.67242 7.34767 64 94 86 
-0.268796 -1.59292 7.67851 50 82 99 
-0.240402 -1.59503 7.73634 47 158 184 
-0.354704 -1.63492 7.52103 67 165 187 
-0.27268 -1.6096 7.68377 35 80 100 
-0.495449 -1.68808 7.25123 150 182 177 
-0.495449 -1.68808 7.25123 150 182 177 
-0.364685 -1.63522 7.51275 69 166 187 
-0.307053 -1.60621 7.62961 87 134 149 
-0.293944 -1.58393 7.68313 72 152 173 
-0.371506 -1.62854 7.5252 22 93 118 
-0.432382 -1.62006 7.41917 83 168 187 
-0.362108 -1.63271 7.54406 32 92 115 
-0.328063 -1.6184 7.61986 47 82 104 
-0.386898 -1.63755 7.51459 77 147 172 
-0.43059 -1.64717 7.43602 35 107 126 
-0.435569 -1.63204 7.45134 83 147 169 
-0.415027 -1.61357 7.50647 78 143 163 
-0.464098 -1.63613 7.4079 66 103 118 
-0.355036 -1.59703 7.62604 79 164 183 
-0.379391 -1.60874 7.57894 88 156 173 
-0.37628 -1.59639 7.6063 46 105 126 
-0.543719 -1.66732 7.27309 161 177 182 
-0.40744 -1.60254 7.55425 107 166 180 
-0.424401 -1.58992 7.54245 65 103 119 
-0.404346 -1.56863 7.59708 114 159 174 
-0.414012 -1.57562 7.60623 102 125 138 
1.14034 -0.864972 8.14045 170 179 178 
0.550111 -1.58888 7.20368 26 52 76 
0.580146 -1.51569 7.50328 55 98 124 
0.384668 -1.70246 7.15951 80 102 126 
0.528436 -1.56813 7.49103 10 55 76 
0.528436 -1.56813 7.49103 10 55 76 
0.456311 -1.64044 7.40065 48 103 121 
0.484984 -1.60434 7.45715 14 61 81 
0.476751 -1.6096 7.50294 56 103 128 
0.420852 -1.6844 7.43563 11 54 80 
0.418835 -1.66366 7.4627 46 92 115 
0.469503 -1.58168 7.56503 48 91 112 
0.382031 -1.6678 7.50334 49 92 118 
0.47239 -1.52482 7.67778 53 97 121 
0.364212 -1.68267 7.4927 0 44 70 
0.417583 -1.59909 7.59707 10 46 67 
0.348416 -1.67981 7.50688 0 44 73 
0.436886 -1.53235 7.71217 5 51 78 
0.337716 -1.68244 7.52449 0 44 74 
0.419955 -1.54379 7.69639 57 102 123 
-0.364716 -1.88058 6.14454 57 57 104 
0.346743 -1.6416 7.59308 4 54 77 
0.334766 -1.65499 7.57494 49 104 129 
0.213566 -1.79026 7.34993 41 42 156 
0.326717 -1.65726 7.59477 49 107 130 
0.377862 -1.56542 7.70802 13 46 73 
0.310446 -1.66736 7.57839 15 57 87 
0.283332 -1.66514 7.58366 30 115 143 
0.334732 -1.59089 7.68965 53 120 140 
0.282941 -1.65124 7.61877 52 110 133 
0.319007 -1.59041 7.70422 12 48 83 
0.212052 -1.72362 7.52766 0 56 90 
0.246106 -1.66879 7.61672 41 110 140 
0.15701 -1.65305 7.43995 37 49 139 
0.098367 -1.84024 7.32307 17 43 67 
0.207847 -1.69786 7.54638 42 115 147 
0.207847 -1.69786 7.54638 42 115 147 
0.216769 -1.68981 7.57789 0 57 88 
0.230836 -1.67302 7.61058 0 62 93 
0.230836 -1.67302 7.61058 0 62 93 
0.230599 -1.65723 7.6346 0 64 94 
0.252944 -1.61627 7.68124 0 51 82 
0.237836 -1.63369 7.66584 37 110 136 
0.149378 -1.75935 7.49067 67 130 154 
0.165605 -1.72132 7.52964 46 122 151 
0.165605 -1.72132 7.52964 46 122 151 
0.182427 -1.68723 7.58578 0 63 93 
0.132201 -1.74855 7.49455 59 119 142 
0.215504 -1.61525 7.68302 0 67 94 
0.157232 -1.67405 7.57661 0 63 95 
0.201628 -1.62454 7.69445 0 56 84 
0.201628 -1.62454 7.69445 0 56 84 
0.209169 -1.60715 7.71121 60 126 156 
0.215501 -1.5994 7.72557 0 59 90 
-0.415136 -2.06948 6.43158 82 77 126 
0.221655 -1.56341 7.75309 34 128 157 
0.221655 -1.56341 7.75309 34 128 157 
0.105598 -1.73301 7.51632 0 54 84 
0.255083 -1.51531 7.83723 5 78 115 
0.193899 -1.60816 7.72129 53 117 145 
0.226668 -1.55618 7.79384 0 65 99 
0.198449 -1.59619 7.73739 0 52 84 
0.2049 -1.59038 7.7524 53 117 145 
0.0634647 -1.80967 7.45547 105 145 160 
0.148235 -1.65059 7.64242 46 118 147 
0.166788 -1.65512 7.6813 7 71 99 
0.243409 -1.50857 7.85173 43 124 155 
0.243409 -1.50857 7.85173 43 124 155 
0.113401 -1.67542 7.58075 0 68 99 
0.0747145 -1.7342 7.50709 55 132 158 
0.128852 -1.65738 7.63489 0 69 96 
0.0841476 -1.73161 7.53888 50 130 158 
0.0841476 -1.73161 7.53888 50 130 158 
0.088904 -1.70298 7.55725 0 76 105 
0.239377 -1.48558 7.88203 40 116 146 
0.21674 -1.53134 7.83681 0 63 93 
-0.000699967 -1.82675 7.38112 62 72 137 
0.186785 -1.53953 7.80232 2 70 100 
0.0931499 -1.6896 7.60137 46 126 155 
0.220745 -1.49307 7.87893 3 78 104 
0.220745 -1.49307 7.87893 3 78 104 
0.116626 -1.66325 7.6563 0 54 78 
0.0713463 -1.71559 7.56252 2 74 104 
0.0713463 -1.71559 7.56252 2 74 104 
0.159144 -1.57272 7.77553 62 116 145 
0.147604 -1.5747 7.76185 2 49 74 
0.0511983 -1.72984 7.55448 41 129 157 
0.117082 -1.64975 7.69636 10 68 91 
0.117082 -1.64975 7.69636 10 68 91 
-0.504037 -1.99979 6.39308 76 70 139 
0.165758 -1.54167 7.81074 53 121 152 
0.0281268 -1.7615 7.51363 36 139 166 
0.198372 -1.50966 7.88354 54 124 149 
0.138472 -1.57683 7.75756 3 48 73 
0.229406 -1.42913 7.95799 40 141 173 
0.116329 -1.59653 7.72016 65 118 140 
0.0546321 -1.70246 7.58893 56 134 163 
-0.0415628 -1.74763 7.38814 23 54 42 
0.114769 -1.63066 7.72668 11 62 82 
0.20312 -1.46843 7.92901 51 111 142 
0.0565611 -1.68312 7.61473 7 75 105 
0.0807304 -1.64933 7.67168 6 54 81 
0.0618038 -1.66567 7.64228 52 127 153 
0.0197113 -1.72127 7.55381 4 52 88 
0.0144375 -1.72506 7.54769 0 59 92 
0.0268884 -1.6853 7.57939 44 129 156 
0.18556 -1.46993 7.92468 4 66 90 
0.0823103 -1.63675 7.70429 63 130 150 
0.0302187 -1.68524 7.59556 0 65 95 
0.0302187 -1.68524 7.59556 0 65 95 
-0.0269378 -1.7791 7.47055 22 55 46 
-0.00397199 -1.73525 7.52586 29 141 170 
-0.0348132 -1.75219 7.48246 116 149 152 
-0.126832 -1.87536 7.29304 22 39 89 
-0.126832 -1.87536 7.29304 22 39 89 
0.0795151 -1.58133 7.76058 10 51 72 
0.0795151 -1.58133 7.76058 10 51 72 
0.0686682 -1.60896 7.73752 65 116 136 
0.0900213 -1.56932 7.78873 18 75 100 
0.120778 -1.49386 7.86625 5 67 91 
0.0195264 -1.67779 7.64103 60 139 159 
-0.0491717 -1.74945 7.49625 13 46 65 
0.00748762 -1.67704 7.62441 6 61 88 
0.0911688 -1.54902 7.81582 13 75 101 
-0.145269 -1.81584 7.29812 28 47 91 
0.0730704 -1.58668 7.77748 69 122 146 
0.0784583 -1.53547 7.79823 17 72 97 
-0.0391605 -1.72467 7.53528 10 101 133 
0.0887375 -1.51831 7.82502 16 75 102 
0.0868398 -1.54031 7.82949 60 122 148 
0.0771033 -1.53326 7.81113 62 119 146 
-0.0260971 -1.69633 7.58375 5 61 90 
0.0782556 -1.55859 7.817 21 80 107 
0.0481438 -1.59217 7.75541 33 71 93 
0.0587473 -1.57854 7.78246 62 110 133 
-0.0212065 -1.68475 7.6043 18 60 88 
0.103131 -1.48881 7.88552 16 73 94 
0.103131 -1.48881 7.88552 16 73 94 
0.108358 -1.47294 7.90882 69 123 145 
0.0587386 -1.55449 7.80022 0 53 77 
-0.0374326 -1.69545 7.58547 63 119 148 
-0.0560136 -1.72049 7.54833 55 142 172 
-0.176219 -1.84053 7.2958 34 52 103 
-0.000309989 -1.63048 7.69102 19 52 79 
0.0516637 -1.55388 7.81532 55 111 134 
-0.105158 -1.78519 7.46315 133 162 171 
-0.0610029 -1.69483 7.56957 10 84 113 
-0.0474939 -1.68128 7.60486 21 72 98 
0.014558 -1.58086 7.75625 48 147 165 
-0.0430946 -1.68071 7.6249 25 67 91 
-0.108884 -1.75288 7.4807 145 167 190 
0.0365931 -1.55563 7.80951 10 68 91 
0.0278716 -1.55157 7.80023 75 133 156 
0.0278716 -1.55157 7.80023 75 133 156 
0.0650942 -1.48225 7.88774 9 62 84 
-0.100973 -1.72029 7.51101 79 155 177 
-0.00270528 -1.59738 7.73297 56 145 165 
-0.0626549 -1.68448 7.60017 67 134 161 
-0.0708487 -1.68942 7.58465 65 147 175 
0.00514841 -1.577 7.76621 50 140 160 
-0.0912463 -1.70601 7.55347 70 150 178 
-0.213391 -1.83487 7.29503 42 62 113 
-0.102142 -1.7115 7.54541 73 155 183 
-0.0652099 -1.66943 7.62985 63 117 139 
-0.122655 -1.7152 7.50642 87 137 160 
-0.1191 -1.72694 7.51573 15 78 102 
-0.0217607 -1.57657 7.74258 19 87 118 
-0.100893 -1.69335 7.56474 13 93 121 
-0.119503 -1.71281 7.53338 75 159 182 
-0.137773 -1.73979 7.49181 25 53 71 
-0.186759 -1.81045 7.38546 48 94 83 
0.00834121 -1.52828 7.83317 9 66 91 
-0.220617 -1.88093 7.30636 129 163 179 
-0.0417412 -1.60586 7.72557 40 88 117 
-0.0962124 -1.67444 7.60372 76 152 174 
-0.00227275 -1.52893 7.82205 72 137 161 
-0.104183 -1.6774 7.58793 73 151 175 
-0.0596664 -1.61056 7.69534 33 68 89 
-0.0284143 -1.55624 7.77454 26 152 175 
-0.152763 -1.709 7.49574 31 69 85 
-0.216532 -1.78541 7.37257 29 60 93 
-0.025884 -1.5504 7.80821 23 68 99 
0.0167059 -1.43425 7.92355 76 137 158 
-0.213775 -1.7847 7.39244 135 169 194 
-0.101935 -1.63172 7.65708 79 135 150 
-0.101935 -1.63172 7.65708 79 135 150 
-0.201235 -1.74929 7.43151 140 173 192 
-0.122011 -1.65546 7.61547 76 142 159 
-0.117319 -1.65001 7.63635 25 49 72 
-0.0320877 -1.49168 7.8541 69 140 161 
-0.107629 -1.62098 7.67898 22 53 72 
-0.0160133 -1.45404 7.89866 28 69 95 
-0.0703484 -1.55088 7.77106 30 155 187 
-0.0932313 -1.58282 7.71992 18 83 107 
-0.280651 -1.78047 7.30349 150 172 212 
-0.10576 -1.62517 7.69706 57 142 161 
-0.154236 -1.64999 7.60504 52 134 151 
-0.0391179 -1.46599 7.88827 62 149 169 
-0.12894 -1.61715 7.67829 75 138 152 
-0.0682814 -1.50404 7.82802 40 151 182 
0.203826 -0.941184 8.5012 47 116 137 
0.200179 -0.957761 8.49605 29 100 125 
-0.146849 -1.62363 7.65314 77 139 151 
-0.230858 -1.72726 7.46353 137 167 184 
-0.061108 -1.48144 7.86207 22 75 107 
-0.183664 -1.62706 7.58043 12 107 134 
-0.144822 -1.60678 7.67015 25 89 101 
-0.231547 -1.70091 7.47945 13 51 73 
-0.179139 -1.6257 7.60433 21 91 114 
-0.143704 -1.59791 7.68558 69 134 150 
-0.0540461 -1.42715 7.90954 18 71 103 
0.172368 -0.947868 8.48708 26 71 102 
0.172368 -0.947868 8.48708 26 71 102 
-0.15764 -1.59872 7.68705 63 121 138 
-0.322359 -1.78898 7.3059 139 169 192 
-0.198318 -1.63785 7.6003 70 141 162 
-0.176629 -1.60985 7.65575 76 129 142 
-0.317658 -1.77361 7.33884 34 69 77 
-0.232437 -1.66197 7.54113 58 152 181 
-0.197905 -1.60757 7.64153 64 107 121 
-0.289129 -1.73347 7.42637 34 75 81 
-0.248496 -1.65346 7.54712 69 154 182 
-0.372022 -1.76796 7.27601 41 63 114 
-0.293075 -1.72134 7.45695 10 69 94 
-0.227209 -1.60953 7.61824 27 65 81 
-0.313734 -1.6936 7.42319 54 102 88 
-0.271244 -1.64501 7.52635 65 151 175 
-0.241391 -1.61513 7.5974 63 150 163 
-0.268568 -1.65131 7.54123 7 76 103 
-0.256216 -1.60761 7.58342 26 89 111 
-0.283491 -1.62869 7.5323 65 149 172 
-0.331713 -1.68735 7.41899 46 90 85 
-0.351058 -1.68953 7.39774 77 121 118 
-0.237624 -1.55165 7.67165 27 66 76 
-0.233503 -1.54851 7.68954 78 115 130 
-0.218589 -1.53347 7.73104 61 153 176 
-0.27885 -1.6018 7.59215 67 135 152 
-0.303272 -1.60328 7.55169 63 152 172 
-0.418543 -1.77225 7.27171 131 163 186 
-0.24016 -1.53851 7.703 24 67 88 
-0.273521 -1.56678 7.6421 79 115 126 
-0.356501 -1.63894 7.4505 44 165 192 
-0.256849 -1.53235 7.69102 23 60 78 
-0.379051 -1.6682 7.41705 105 146 150 
-0.299069 -1.56391 7.61249 29 65 86 
-0.322943 -1.6076 7.55299 23 75 101 
-0.284235 -1.53881 7.65605 23 64 76 
-0.241516 -1.52049 7.75325 42 161 188 
-0.275328 -1.49141 7.70512 28 80 104 
-0.427093 -1.64988 7.34861 59 95 82 
-0.299489 -1.53253 7.65888 74 127 141 
-0.314721 -1.55002 7.62197 81 131 147 
-0.314721 -1.55002 7.62197 81 131 147 
-0.356207 -1.59313 7.52474 60 157 182 
-0.331742 -1.52312 7.63627 37 83 106 
-0.0283072 -0.788223 8.46524 76 125 139 
-0.392918 -1.58285 7.49622 21 97 127 
-0.433014 -1.60248 7.41999 85 174 194 
-0.390799 -1.56222 7.52536 77 153 177 
-0.385245 -1.55373 7.54211 82 156 180 
-0.472672 -1.6245 7.34887 60 89 83 
-0.402282 -1.54795 7.52934 40 111 132 
-0.358784 -1.50987 7.63979 74 167 186 
-0.46439 -1.58127 7.39766 119 166 181 
-0.439704 -1.56061 7.4613 90 154 176 
-0.467562 -1.57116 7.41597 53 94 114 
-0.413536 -1.47858 7.57435 98 158 176 
-0.552005 -1.56835 7.28326 164 183 184 
-0.405015 -1.41056 7.64957 105 170 186 
-0.42516 -1.43972 7.60228 64 92 110 
0.404545 -1.59538 7.63223 74 108 125 
0.302728 -1.65352 7.60817 10 44 71 
0.214471 -1.73167 7.45329 102 126 155 
0.259082 -1.68037 7.5977 0 39 68 
0.209808 -1.73267 7.52581 0 45 80 
0.277102 -1.64052 7.65246 58 117 144 
0.17506 -1.76798 7.47984 51 131 159 
0.244213 -1.67511 7.61425 44 110 140 
0.261477 -1.64493 7.64753 0 47 75 
0.148195 -1.73983 7.4401 107 133 173 
0.228697 -1.68084 7.60767 0 62 92 
0.164735 -1.69438 7.49682 44 124 147 
0.212422 -1.68258 7.61309 50 119 150 
0.249475 -1.63036 7.67911 0 44 75 
0.185711 -1.70992 7.56609 45 117 147 
0.194852 -1.61576 7.556 0 53 83 
0.20951 -1.6718 7.63884 52 118 148 
0.175711 -1.71359 7.58061 0 64 96 
0.127259 -1.76961 7.49081 57 125 150 
0.239587 -1.61736 7.69803 0 54 87 
0.0441191 -1.84454 7.33317 18 44 56 
0.118133 -1.76299 7.5044 0 45 71 
0.162503 -1.71324 7.5906 43 120 151 
0.219678 -1.62475 7.695 55 118 149 
0.132643 -1.74079 7.54119 0 64 95 
0.107961 -1.76223 7.49474 57 128 149 
0.167026 -1.68904 7.61635 0 67 99 
0.193398 -1.65282 7.67199 55 118 149 
0.0993091 -1.75987 7.5119 0 53 79 
0.13575 -1.71529 7.58069 47 123 157 
0.20548 -1.62213 7.70851 62 123 154 
0.0635068 -1.79342 7.44538 119 153 164 
0.0916245 -1.75736 7.4984 51 127 145 
0.102807 -1.7454 7.53048 41 126 153 
0.211918 -1.60247 7.73723 40 124 154 
0.18564 -1.62959 7.69032 52 116 144 
0.136156 -1.6913 7.61552 2 78 108 
0.193209 -1.6113 7.72088 61 123 149 
0.0979518 -1.74018 7.54643 0 69 99 
0.196806 -1.60287 7.73622 0 51 79 
0.0473974 -1.8261 7.46987 102 138 156 
0.206319 -1.58457 7.75316 56 122 153 
0.206319 -1.58457 7.75316 56 122 153 
0.142555 -1.67609 7.63964 62 134 163 
0.0674332 -1.76644 7.50203 48 132 153 
0.0797513 -1.751 7.53561 41 128 156 
0.147637 -1.66287 7.67382 59 127 150 
0.181004 -1.59791 7.73278 66 126 149 
0.23164 -1.52562 7.82673 44 125 156 
0.0812743 -1.73721 7.55254 0 74 104 
0.0812743 -1.73721 7.55254 0 74 104 
0.123523 -1.68187 7.63191 0 57 87 
0.0283817 -1.79315 7.45381 11 49 41 
0.0647335 -1.7438 7.54389 48 135 163 
0.0647335 -1.7438 7.54389 48 135 163 
0.0465082 -1.75802 7.50703 42 133 159 
0.0863744 -1.72 7.59562 54 130 160 
0.10385 -1.69213 7.62748 58 121 152 
0.0689532 -1.72621 7.56058 0 61 91 
0.179639 -1.56913 7.79806 10 73 104 
0.0497199 -1.73643 7.55275 43 130 158 
0.033278 -1.73577 7.51523 31 138 163 
0.224474 -1.47697 7.88179 0 71 97 
0.189824 -1.525 7.8196 56 124 157 
0.189824 -1.525 7.8196 56 124 157 
-0.00705099 -1.8012 7.46786 10 46 39 
0.142679 -1.59629 7.75784 7 50 76 
0.0166621 -1.74223 7.5339 48 141 168 
0.0522676 -1.70307 7.61131 2 71 101 
0.0204534 -1.73716 7.55621 0 39 74 
0.0777668 -1.66234 7.66924 3 50 75 
0.0777668 -1.66234 7.66924 3 50 75 
0.135064 -1.57432 7.7761 59 110 138 
0.0161074 -1.73814 7.55071 0 46 81 
0.0113138 -1.74015 7.54541 0 45 78 
0.0598846 -1.67503 7.64225 51 130 155 
-0.327119 -2.18376 6.90282 48 28 150 
0.215096 -1.41672 7.93945 62 124 152 
-0.00779939 -1.75386 7.5224 30 138 167 
0.137275 -1.5472 7.80034 66 127 158 
0.0259262 -1.70628 7.59325 0 55 86 
0.0259262 -1.70628 7.59325 0 55 86 
-0.0229815 -1.7585 7.50742 71 145 169 
0.0583268 -1.65863 7.67148 64 133 154 
0.114519 -1.57287 7.7762 59 110 138 
0.0686421 -1.6496 7.69451 69 125 148 
0.0106632 -1.7234 7.57863 52 137 165 
0.192434 -1.4363 7.91866 55 117 143 
-0.0405379 -1.78049 7.47846 101 139 144 
-0.0405379 -1.78049 7.47846 101 139 144 
0.163288 -1.48542 7.87391 0 67 94 
0.127585 -1.54776 7.82244 56 123 150 
0.0123509 -1.7021 7.60765 0 51 83 
0.144752 -1.50681 7.86131 61 129 159 
0.00365317 -1.706 7.59256 46 134 161 
0.00365317 -1.706 7.59256 46 134 161 
0.03579 -1.66113 7.66632 16 49 78 
0.03579 -1.66113 7.66632 16 49 78 
-0.0527387 -1.76791 7.49371 0 27 53 
0.01978 -1.6751 7.64043 48 137 159 
0.17196 -1.44258 7.92813 66 128 154 
0.0046317 -1.69101 7.6226 0 51 80 
-0.00725901 -1.70559 7.60353 49 128 153 
-0.0419568 -1.73978 7.53516 0 86 119 
0.159623 -1.43904 7.92335 4 66 92 
-0.0381315 -1.73126 7.54774 0 87 118 
0.0763486 -1.57152 7.78016 69 122 146 
-0.0621133 -1.75692 7.50705 59 133 163 
-0.0246925 -1.7126 7.58782 13 53 88 
0.0730268 -1.56111 7.79425 0 58 83 
-0.0842005 -1.75918 7.48224 123 154 173 
0.170715 -1.38334 7.98104 0 57 88 
0.0496964 -1.58303 7.75455 18 57 83 
-0.0566407 -1.72331 7.54732 36 133 164 
-0.0395032 -1.70661 7.58431 60 123 155 
0.0732132 -1.55164 7.80825 60 122 146 
-0.18066 -1.86574 7.29229 24 47 96 
0.103975 -1.48766 7.86489 65 125 148 
0.161536 -1.37202 7.97439 72 134 160 
-0.109585 -1.81145 7.46229 126 157 170 
-0.027388 -1.68439 7.62589 62 113 139 
0.107339 -1.47028 7.89144 9 66 87 
-0.0805622 -1.72256 7.51537 29 143 167 
-0.0251094 -1.67193 7.64351 58 127 148 
-0.0251094 -1.67193 7.64351 58 127 148 
-0.0503229 -1.69528 7.60192 0 59 87 
-0.193365 -1.82115 7.29419 30 46 110 
-0.0761976 -1.71649 7.55258 0 56 87 
-0.0425804 -1.67507 7.62417 10 55 80 
0.0440176 -1.55017 7.79592 65 124 149 
-0.0248945 -1.64329 7.6713 54 135 150 
-0.0248945 -1.64329 7.6713 54 135 150 
-0.105318 -1.74366 7.50771 59 148 170 
-0.0260314 -1.64601 7.67238 55 136 151 
-0.0260314 -1.64601 7.67238 55 136 151 
-0.0645923 -1.6928 7.59765 53 131 159 
0.014258 -1.58133 7.75474 47 137 157 
-0.0801972 -1.70375 7.56815 57 144 172 
-0.0801972 -1.70375 7.56815 57 144 172 
0.0398396 -1.53926 7.81222 0 63 87 
0.121207 -1.39123 7.97327 72 127 154 
0.0315521 -1.53385 7.80409 70 132 158 
-0.214741 -1.84456 7.30808 127 159 182 
0.0675806 -1.47144 7.88619 9 62 84 
0.00789958 -1.56328 7.76943 48 137 161 
-0.0645703 -1.66656 7.62999 64 124 147 
-0.120588 -1.73512 7.51443 4 66 90 
-0.00536638 -1.58344 7.75606 0 64 92 
-0.202154 -1.83387 7.36082 65 112 98 
-0.137761 -1.73996 7.49124 19 48 67 
-0.238435 -1.88456 7.28954 39 52 118 
0.0517566 -1.45762 7.89288 75 128 150 
-0.140121 -1.73373 7.50771 13 80 100 
-0.0820649 -1.65689 7.63988 8 76 93 
-0.140141 -1.73385 7.52286 62 157 178 
-0.11918 -1.6978 7.56496 68 153 180 
-0.0930639 -1.66549 7.62418 62 145 164 
-0.0930639 -1.66549 7.62418 62 145 164 
-0.133004 -1.71276 7.54108 4 91 118 
-0.0097903 -1.55273 7.79756 26 63 95 
-0.05957 -1.61075 7.69698 30 66 84 
-0.143709 -1.65302 7.49817 26 45 66 
0.00120729 -1.51124 7.82606 65 143 167 
0.016892 -1.48421 7.85923 68 137 158 
-0.220311 -1.80884 7.36962 33 59 107 
-0.145518 -1.65067 7.50873 19 81 99 
-0.228745 -1.80809 7.35217 123 161 176 
-0.228745 -1.80809 7.35217 123 161 176 
-0.0394448 -1.6134 7.7645 26 148 175 
-0.23908 -1.82436 7.33589 62 105 102 
-0.125634 -1.68927 7.57894 13 87 116 
-0.149736 -1.71216 7.53362 3 91 118 
-0.14712 -1.70506 7.54808 62 149 176 
-0.209693 -1.80294 7.42734 144 174 190 
-0.102947 -1.6375 7.65655 70 134 146 
-0.176542 -1.72432 7.49932 26 84 102 
-0.123284 -1.6621 7.61457 83 144 165 
-0.0684937 -1.5874 7.73005 35 151 174 
-0.0859154 -1.60499 7.69818 64 118 137 
-0.117762 -1.65279 7.63613 19 47 65 
-0.269809 -1.82353 7.3164 138 168 190 
-0.014164 -1.48257 7.85818 9 66 91 
-0.139103 -1.66366 7.60256 13 100 122 
-0.106306 -1.61335 7.68005 24 51 71 
-0.100604 -1.59586 7.70177 60 143 162 
-0.0928303 -1.58062 7.7211 6 63 90 
-0.168546 -1.67486 7.56435 74 162 189 
-0.155869 -1.66004 7.60331 61 138 158 
-0.126783 -1.60373 7.68014 85 140 155 
-0.146901 -1.61982 7.66814 26 87 101 
-0.058614 -1.45453 7.85417 0 65 98 
-0.115639 -1.55608 7.74206 58 154 182 
-0.14534 -1.60799 7.68407 70 130 148 
-0.18207 -1.64435 7.60252 30 93 115 
-0.0560714 -1.45135 7.86621 19 65 99 
-0.229794 -1.7006 7.4988 4 75 98 
-0.324836 -1.80655 7.30351 137 168 187 
-0.197929 -1.63607 7.6009 71 150 170 
-0.320847 -1.79729 7.33708 36 76 70 
-0.175467 -1.60239 7.65665 84 139 154 
-0.144386 -1.54291 7.73423 0 67 94 
-0.261934 -1.68952 7.48104 66 153 173 
-0.286482 -1.71666 7.42807 33 77 81 
0.161043 -0.925077 8.35821 0 107 140 
-0.358516 -1.78117 7.27534 37 52 124 
-0.196976 -1.60106 7.64196 79 124 138 
0.2246 -0.84267 8.52997 26 99 118 
-0.276963 -1.67821 7.48034 34 162 179 
-0.373949 -1.80257 7.2828 122 161 171 
-0.22645 -1.60339 7.62011 29 67 83 
-0.271793 -1.64899 7.52629 52 153 178 
-0.240061 -1.60724 7.59997 61 149 167 
-0.181067 -1.52362 7.73084 7 72 96 
-0.202885 -1.55656 7.69231 20 72 88 
-0.345855 -1.72798 7.38618 33 67 100 
-0.237046 -1.58088 7.6403 81 118 133 
-0.3857 -1.75292 7.32674 25 65 57 
-0.310114 -1.63758 7.49596 36 152 180 
-0.23054 -1.52805 7.69219 61 117 129 
-0.213926 -1.5033 7.73612 37 153 176 
-0.369229 -1.70149 7.38747 68 119 95 
-0.391246 -1.75661 7.34907 83 97 167 
-0.286808 -1.58812 7.58392 11 82 103 
-0.355708 -1.65131 7.42576 131 172 176 
-0.355708 -1.65131 7.42576 131 172 176 
-0.434561 -1.78212 7.25593 37 56 116 
-0.253494 -1.50817 7.69412 28 62 79 
-0.376029 -1.64324 7.4185 125 157 163 
-0.333945 -1.60195 7.52279 7 81 110 
-0.248321 -1.48418 7.72382 42 149 170 
-0.313677 -1.56173 7.58276 58 149 165 
-0.268591 -1.50502 7.69085 48 85 101 
-0.456253 -1.71848 7.25933 143 182 184 
-0.397654 -1.62064 7.40874 99 139 146 
-0.409637 -1.68001 7.39477 30 74 69 
-0.425084 -1.6279 7.34734 51 91 67 
-0.273131 -1.47618 7.70808 18 79 100 
-0.312192 -1.52831 7.62364 68 143 155 
-0.353691 -1.56999 7.52629 33 154 181 
-0.305603 -1.51379 7.645 62 135 145 
-0.468412 -1.7353 7.27434 61 108 85 
-0.489881 -1.77626 7.23511 64 77 143 
-0.320971 -1.51299 7.63687 21 57 78 
-0.418292 -1.61846 7.40916 13 85 104 
-0.493852 -1.68556 7.26602 73 117 98 
-0.437273 -1.60968 7.39905 27 78 98 
-0.404438 -1.57332 7.47811 4 88 118 
-0.430916 -1.58176 7.42089 50 166 189 
-0.397451 -1.54314 7.50899 60 147 175 
-0.45545 -1.57303 7.3863 28 88 100 
-0.432514 -1.56627 7.44582 15 84 114 
-0.399636 -1.52343 7.53249 14 96 124 
-0.399636 -1.52343 7.53249 14 96 124 
-0.354088 -1.46819 7.64403 44 160 182 
-0.394014 -1.5138 7.55201 16 93 119 
-0.445544 -1.56094 7.43106 17 82 108 
-0.473669 -1.59286 7.36376 146 175 177 
-0.420399 -1.53487 7.49316 12 93 118 
-0.462855 -1.56279 7.39731 83 173 186 
-0.446091 -1.54109 7.44873 80 158 182 
-0.391691 -1.46853 7.58419 26 96 121 
-0.492562 -1.58617 7.34883 151 178 178 
-0.433454 -1.51593 7.49241 93 162 183 
-0.464561 -1.54296 7.41913 29 65 87 
-0.477 -1.54833 7.39511 71 98 118 
-0.449464 -1.51619 7.46505 25 83 106 
-0.489607 -1.56573 7.37738 149 174 188 
-0.409363 -1.4421 7.58042 72 163 179 
-0.535442 -1.58138 7.28226 132 164 163 
-0.54388 -1.56911 7.2601 65 92 101 
-0.457588 -1.50441 7.4757 137 173 195 
-0.531669 -1.57229 7.29563 75 106 103 
-0.426106 -1.44141 7.56503 42 69 89 
-0.550608 -1.54945 7.28407 152 179 188 
-0.438707 -1.43308 7.56102 152 176 193 
-0.418135 -1.36481 7.64476 48 76 94 
-0.569061 -1.49437 7.29089 89 110 125 
-0.43097 -1.12373 7.73995 86 111 125 
0.587335 -0.103749 4.88418 180 187 184 
-0.127531 -2.11388 6.54214 9 15 70 
0.309623 -1.6943 7.55075 0 38 65 
0.372597 -1.57758 7.70735 15 51 72 
0.289271 -1.67872 7.60321 0 42 66 
0.293456 -1.6602 7.62275 8 46 67 
0.251299 -1.69797 7.56582 0 51 83 
0.246622 -1.70377 7.59234 0 38 64 
0.111548 -1.82729 7.31759 8 34 57 
0.18005 -1.75778 7.47838 45 113 138 
0.304592 -1.61438 7.69699 0 45 74 
0.2473 -1.66913 7.61467 47 99 125 
0.25636 -1.65468 7.64534 0 48 72 
0.211881 -1.70576 7.56948 0 49 76 
0.211881 -1.70576 7.56948 0 49 76 
0.258695 -1.653 7.66803 52 104 130 
0.241591 -1.66772 7.63165 46 98 124 
0.226027 -1.6858 7.60534 0 47 76 
0.265559 -1.63352 7.68534 43 108 134 
0.265559 -1.63352 7.68534 43 108 134 
0.0366644 -1.16494 5.93659 90 89 96 
0.178419 -1.72407 7.56272 44 101 133 
0.247293 -1.6346 7.67818 0 46 73 
0.187955 -1.68632 7.5467 0 52 83 
0.140648 -1.74248 7.49136 54 106 132 
0.193117 -1.69008 7.59924 0 52 81 
0.0260303 -1.88098 7.32721 14 39 42 
0.227716 -1.64064 7.69415 0 43 74 
0.224904 -1.62913 7.67152 0 52 77 
0.224904 -1.62913 7.67152 0 52 77 
0.181973 -1.66649 7.57407 0 57 87 
0.127997 -1.74283 7.5046 0 37 62 
0.136286 -1.73321 7.54047 0 50 80 
0.113666 -1.75035 7.49412 52 105 129 
0.219046 -1.62953 7.70843 0 51 82 
0.111686 -1.7576 7.52332 43 110 137 
0.135675 -1.71528 7.57972 36 104 134 
0.135675 -1.71528 7.57972 36 104 134 
0.0424194 -1.85743 7.48572 43 106 130 
0.19605 -1.6382 7.69151 0 47 73 
0.106734 -1.73707 7.52968 41 110 137 
0.206888 -1.6201 7.72182 0 49 80 
0.106492 -1.73793 7.55524 42 108 139 
0.0841492 -1.73054 7.46641 95 127 143 
0.208041 -1.61016 7.73585 46 112 142 
0.102781 -1.73004 7.54607 0 58 89 
0.0754895 -1.74385 7.46586 98 130 141 
0.119929 -1.69618 7.57513 0 58 89 
0.0836145 -1.73271 7.50364 42 110 133 
0.190105 -1.61755 7.71982 50 105 130 
0.17779 -1.62487 7.68538 0 47 74 
0.148163 -1.66465 7.64092 48 103 130 
0.190605 -1.61532 7.73414 0 44 72 
0.197206 -1.60293 7.75015 48 105 132 
0.146606 -1.66461 7.6715 54 102 129 
0.146606 -1.66461 7.6715 54 102 129 
0.227962 -1.56207 7.80965 0 56 88 
0.205435 -1.58531 7.77163 6 62 91 
0.109926 -1.70925 7.62605 0 51 80 
0.242046 -1.5373 7.84413 0 66 96 
0.144713 -1.66344 7.69878 49 99 122 
0.169973 -1.62024 7.72906 65 110 135 
0.142411 -1.64481 7.66935 0 50 74 
0.243013 -1.52329 7.86033 0 58 88 
0.0524545 -1.74526 7.50653 28 117 139 
0.217417 -1.55398 7.82139 49 110 141 
-0.0423412 -1.50933 6.72873 31 16 141 
-0.357765 -2.01806 6.40476 31 28 77 
0.0796181 -1.70094 7.576 52 118 148 
0.0216857 -1.7618 7.47767 93 128 136 
0.0216857 -1.7618 7.47767 93 128 136 
0.0523361 -1.73053 7.55136 50 113 144 
0.16104 -1.60244 7.77029 61 106 131 
0.229913 -1.51267 7.88876 0 62 90 
-0.363781 -2.00645 6.40782 96 97 141 
0.0333859 -1.73537 7.51445 21 122 148 
0.0968506 -1.66745 7.65732 44 92 115 
0.0564157 -1.70554 7.58652 44 112 142 
0.14552 -1.60281 7.76995 67 110 136 
0.169908 -1.56616 7.81287 55 110 142 
-0.377364 -2.00274 6.40261 92 89 138 
0.036232 -1.72375 7.56441 53 117 145 
0.20284 -1.52851 7.88595 50 109 136 
-0.254869 -2.0367 6.96231 8 4 117 
-0.376764 -1.99421 6.40244 92 89 140 
0.0403292 -1.70403 7.58386 0 51 78 
0.0403292 -1.70403 7.58386 0 51 78 
0.218238 -1.48755 7.9177 0 54 82 
-0.0313407 -1.75026 7.38482 20 51 39 
0.0610921 -1.6726 7.64359 55 114 141 
-0.0140555 -1.76681 7.51823 20 122 152 
0.029812 -1.6978 7.59367 0 42 73 
0.029812 -1.6978 7.59367 0 42 73 
0.0463934 -1.66936 7.61513 55 115 146 
0.0215062 -1.69982 7.57995 46 116 143 
0.00930905 -1.71619 7.56201 0 45 78 
-0.0279402 -1.75282 7.47989 91 122 130 
0.0730962 -1.64038 7.69761 57 110 132 
